1.699 1.69 1.69 1.681 1.672 1.672 1.667 1.667 1.662 1.662 1.662 1.662 1.667 1.667 1.667 1.667 1.667 1.667 1.667 1.667 1.667 1.667 1.667 1.667 1.672 1.672 1.672 1.672 1.672 1.676 1.676 1.681 1.681 1.681 1.685 1.685 1.69 1.695 1.695 1.699 1.699 1.699 1.704 1.704 1.709 1.714 1.714 1.718 1.723 1.723 1.728 1.728 1.738 1.738 1.738 1.748 1.753 1.753 1.758 1.758 1.763 1.768 1.768 1.768 1.773 1.773 1.773 1.778 1.778 1.778 1.778 1.784 1.784 1.784 1.784 1.789 1.789 1.789 1.789 1.794 1.794 1.794 1.794 1.799 1.799 1.799 1.799 1.805 1.805 1.805 1.81 1.81 1.81 1.815 1.815 1.815 1.821 1.821 1.826 1.826 1.826 1.832 1.832 1.837 1.837 1.837 1.843 1.848 1.848 1.848 1.848 1.848 1.854 1.854 1.86 1.86 1.86 1.865 1.865 1.865 1.871 1.871 1.871 1.877 1.877 1.877 1.882 1.882 1.882 1.882 1.888 1.888 1.888 1.888 1.894 1.894 1.894 1.894 1.9 1.906 1.906 1.912 1.918 1.918 1.924 1.924 1.93 1.942 1.942 1.948 1.955 1.955 1.961 1.961 1.967 1.973 1.973 1.98 1.986 1.986 1.993 1.993 1.999 2.006 2.006 2.012 2.026 2.026 2.033 2.033 2.039 2.053 2.053 2.06 2.074 2.074 2.081 2.081 2.095 2.102 2.102 2.117 2.124 2.124 2.132 2.132 2.132 2.147 2.147 2.154 2.162 2.162 2.177 2.185 2.185 2.193 2.193 2.209 2.217 2.217 2.225 2.225 2.225 2.225 2.225 2.225 2.225 2.225 2.225 2.225 2.225 2.225 2.217 2.217 2.225 2.225 2.225 2.233 2.233 2.241 2.241 2.249 2.258 2.258 2.274 2.283 2.283 2.291 2.291 2.3 2.309 2.309 2.326 2.335 2.335 2.353 2.353 2.362 2.371 2.371 2.39 2.399 2.399 2.409 2.418 2.418 2.418 2.418 2.428 2.447 2.447 2.457 2.477 2.477 2.487 2.487 2.518 2.528 2.528 2.549 2.56 2.56 2.56 2.56 2.56 2.56 2.56 2.56 2.56 2.56 2.56 2.56 2.549 2.549 2.549 2.549 2.549 2.539 2.539 2.528 2.518 2.518 2.507 2.497 2.497 2.487 2.487 2.477 2.477 2.477 2.467 2.457 2.457 2.447 2.447 2.447 2.447 0 0 0 0 0 2.39 2.39 2.371 0.187 0.187 0.187 0.186 0.186 0.186 0.187 0 0.185 0.185 0 0 0 0.183 0.182 0.182 0.181 0.18 0.18 0.18 0 0.178 0.177 0.177 0.176 0.176 0.176 0.176 0.176 0.176 0.176 0.176 0.175 0.175 0.175 0.175 0.174 0.174 0.172 0.172 0.172 0.172 0.172 0.171 0.171 0.171 0.171 0.171 0.171 0.171 0.171 0.171 0.17 0.17 0.17 0.17 0.17 0 0 0.17 0.17 0.17 0.17 0.17 0.17 0.171 0.171 0.171 0.171 0.523 0.523 0.519 0.519 0.517 0.515 0.171 0.171 0.511 0.511 0.51 0.51 0.508 0.506 0.506 0.504 0.503 0.172 0.172 0.172 0.172 0.172 0.172 0.172 0.173 0.173 0.173 0.173 0.173 0.173 0.173 0.173 0.173 0.173 0.173 0.173 0.173 0.173 0.173 0.173 0.173 0.173 0.479 0.478 0.478 0.476 0.476 0.475 0.474 0.474 0.472 0.471 0.471 0.47 0.47 0.468 0.467 0.467 0.465 0.464 0.464 0.462 0.462 0.461 0.459 0.459 0.458 0.457 0.457 0.455 0.455 0.454 0.453 0.453 0.452 0.45 0.45 0.449 0.449 0.448 0.446 0.446 0.445 0.444 0.444 0.443 0.443 0.441 0.44 0.44 0.439 0.438 0.438 0.436 0.436 0.435 0.434 0.434 0.433 0.432 0.432 0.431 0.429 0.429 0.428 0.428
1.699 1.69 1.69 1.681 1.672 1.672 1.667 1.667 1.667 1.667 1.667 1.667 1.667 1.667 1.667 1.667 1.667 1.667 1.667 1.667 1.667 1.667 1.667 1.667 1.672 1.672 1.672 1.672 1.672 1.676 1.676 1.681 1.681 1.681 1.685 1.685 1.69 1.695 1.695 1.695 1.699 1.699 1.704 1.704 1.709 1.709 1.709 1.714 1.718 1.718 1.728 1.728 1.733 1.738 1.738 1.748 1.753 1.753 1.758 1.758 1.763 1.768 1.768 1.768 1.773 1.773 1.773 1.778 1.778 1.778 1.778 1.784 1.784 1.784 1.784 1.789 1.789 1.789 1.789 1.794 1.794 1.794 1.794 1.799 1.799 1.799 1.799 1.805 1.805 1.805 1.81 1.815 1.815 1.821 1.821 1.821 1.821 1.821 1.826 1.832 1.832 1.837 1.837 1.843 1.843 1.843 1.848 1.848 1.848 1.854 1.854 1.854 1.854 1.854 1.86 1.865 1.865 1.865 1.865 1.865 1.871 1.871 1.871 1.877 1.877 1.877 1.882 1.882 1.882 1.882 1.888 1.888 1.888 1.888 1.894 1.894 1.894 1.894 1.9 1.906 1.906 1.912 1.918 1.918 1.924 1.924 1.93 1.942 1.942 1.948 1.955 1.955 1.961 1.961 1.967 1.973 1.973 1.98 1.986 1.986 1.993 1.993 1.999 2.006 1.999 1.999 2.006 2.006 2.012 2.012 2.019 2.026 2.026 2.039 2.046 2.046 2.06 2.06 2.067 2.081 2.081 2.095 2.102 2.102 2.11 2.11 2.11 2.124 2.124 2.132 2.139 2.139 2.147 2.162 2.162 2.169 2.169 2.177 2.185 2.185 2.193 2.193 2.193 2.201 2.201 2.201 2.201 2.193 2.193 2.193 2.193 2.193 2.193 2.201 2.201 2.201 2.209 2.217 2.217 2.225 2.225 2.233 2.241 2.241 2.249 2.266 2.266 2.274 2.274 2.283 2.291 2.291 2.3 2.309 2.309 2.326 2.326 2.335 2.353 2.353 2.371 2.371 2.371 2.39 2.399 2.399 2.409 2.409 2.428 2.437 2.437 2.457 2.477 2.477 2.487 2.487 2.518 2.528 2.528 2.549 2.56 2.56 2.56 2.56 2.56 2.56 2.56 2.56 2.56 2.56 2.56 2.56 2.549 2.549 2.549 2.549 2.549 2.539 2.539 2.539 2.528 2.528 2.507 2.497 2.497 2.487 2.487 2.477 2.477 2.477 2.467 2.457 2.457 2.447 2.447 2.447 0 0 0 0 0 0 2.38 2.38 2.371 0.188 0.187 0.187 0.187 0.187 0.187 0.187 0 0.185 0.185 0 0 0 0.183 0.182 0.182 0.181 0.18 0.18 0.179 0.179 0.178 0.177 0.177 0.177 0.176 0.176 0.176 0.176 0.176 0.176 0.176 0.176 0.175 0.175 0.175 0.174 0.174 0.174 0 0 0 0 0.172 0.171 0.171 0.171 0.171 0.171 0.171 0 0 0 0 0 0 0 0 0 0 0 0.534 0.534 0.534 0 0 0.529 0.529 0.526 0.523 0.523 0.52 0.52 0.518 0.515 0.515 0.513 0.512 0.512 0.51 0.51 0.508 0.506 0.506 0.172 0.172 0.172 0.172 0.172 0.172 0.172 0.172 0.172 0.173 0.173 0.173 0.173 0.173 0.173 0.173 0.173 0.173 0.173 0.173 0.173 0.173 0.173 0.173 0.173 0.173 0.173 0.479 0.477 0.477 0.476 0.476 0.475 0.474 0.474 0.472 0.471 0.471 0.469 0.469 0.468 0.467 0.467 0.465 0.464 0.464 0.462 0.462 0.461 0.46 0.46 0.458 0.457 0.457 0.455 0.455 0.454 0.453 0.453 0.452 0.45 0.45 0.449 0.449 0.448 0.446 0.446 0.445 0.444 0.444 0.443 0.443 0.441 0.44 0.44 0.439 0.438 0.438 0.437 0.437 0.435 0.435 0.435 0.433 0.432 0.432 0.43 0.429 0.429 0.428 0.428
1.718 1.704 1.704 1.69 1.681 1.681 1.676 1.676 1.676 1.672 1.672 1.672 1.672 1.672 1.672 1.672 1.672 1.672 1.672 1.672 1.672 1.672 1.672 1.672 1.676 1.676 1.676 1.676 1.676 1.681 1.681 1.681 1.685 1.685 1.685 1.685 1.69 1.695 1.695 1.695 1.699 1.699 1.704 1.704 1.704 1.709 1.709 1.714 1.718 1.718 1.728 1.728 1.733 1.738 1.738 1.748 1.753 1.753 1.758 1.758 1.763 1.768 1.768 1.768 1.773 1.773 1.773 1.778 1.778 1.778 1.778 1.784 1.784 1.784 1.784 1.789 1.789 1.789 1.789 1.794 1.799 1.799 1.799 1.799 1.799 1.805 1.805 1.805 1.81 1.81 1.81 1.815 1.815 1.821 1.821 1.821 1.821 1.821 1.826 1.832 1.832 1.837 1.837 1.843 1.843 1.843 1.848 1.848 1.848 1.854 1.854 1.854 1.854 1.854 1.86 1.865 1.865 1.865 1.865 1.865 1.871 1.871 1.871 1.877 1.877 1.877 1.882 1.882 1.882 1.882 1.882 1.888 1.888 1.888 1.888 1.888 1.894 1.894 1.9 1.9 1.9 1.906 1.912 1.912 1.924 1.924 1.924 1.936 1.936 1.942 1.948 1.948 1.955 1.955 1.961 1.967 1.967 1.973 1.98 1.98 1.98 1.98 1.986 1.993 1.993 1.999 2.006 2.006 2.012 2.012 2.019 2.026 2.026 2.039 2.046 2.046 2.06 2.06 2.067 2.081 2.081 2.095 2.102 2.102 2.11 2.11 2.11 2.124 2.124 2.132 2.139 2.139 2.147 2.162 2.162 2.169 2.169 2.177 2.185 2.185 2.193 2.193 2.193 2.201 2.201 2.201 2.201 2.193 2.193 2.193 2.193 2.193 2.193 2.201 2.201 2.201 2.209 2.217 2.217 2.225 2.225 2.233 2.241 2.233 2.233 2.241 2.241 2.249 2.249 2.258 2.258 2.258 2.266 2.283 2.283 2.291 2.291 2.3 2.317 2.317 2.326 2.344 2.344 2.353 2.362 2.362 2.38 2.38 2.399 2.418 2.418 2.447 2.467 2.467 2.487 2.487 2.507 2.528 2.528 2.549 2.56 2.56 2.56 2.56 2.56 2.56 2.56 2.56 2.56 2.56 2.56 2.56 2.549 2.549 2.549 2.549 2.549 2.539 2.539 2.539 2.528 2.528 2.507 2.497 2.497 2.487 2.487 2.477 2.467 2.467 2.457 2.457 2.457 2.447 2.447 2.447 0 0 0 0 0 0 2.38 2.38 2.38 0.188 0.187 0.187 0.187 0.187 0.187 0.186 0.186 0.185 0.185 0.185 0.185 0 0.184 0.183 0.183 0.181 0.18 0.18 0.179 0.179 0.178 0.177 0.177 0.177 0.176 0.176 0.176 0.176 0.176 0.176 0.176 0.176 0.175 0.175 0.175 0.174 0.174 0.174 0 0 0 0 0.172 0.172 0.172 0.172 0 0 0 0 0 0 0 0 0 0 0 0 0 0.535 0.533 0.533 0.532 0.532 0.53 0.529 0.529 0.526 0.523 0.523 0.52 0.52 0.518 0.515 0.515 0.513 0.512 0.512 0.51 0.51 0.508 0.506 0.506 0.172 0.172 0.172 0.172 0.172 0.172 0.499 0.499 0.173 0.173 0.173 0.173 0.173 0.173 0.173 0.173 0.173 0.173 0.173 0.173 0.173 0.173 0.173 0.173 0.173 0.48 0.48 0.479 0.477 0.477 0.476 0.476 0.475 0.474 0.474 0.472 0.471 0.471 0.469 0.469 0.468 0.467 0.467 0.465 0.463 0.463 0.462 0.462 0.461 0.46 0.46 0.458 0.457 0.457 0.455 0.455 0.454 0.453 0.453 0.451 0.45 0.45 0.449 0.449 0.447 0.446 0.446 0.445 0.444 0.444 0.442 0.442 0.441 0.44 0.44 0.439 0.438 0.438 0.437 0.437 0.435 0.435 0.435 0.433 0.432 0.432 0.43 0.429 0.429 0.427 0.427
1.718 1.704 1.704 1.69 1.681 1.681 1.676 1.676 1.676 1.672 1.672 1.672 1.672 1.672 1.672 1.672 1.672 1.672 1.672 1.672 1.672 1.672 1.672 1.672 1.676 1.676 1.676 1.676 1.676 1.681 1.681 1.681 1.685 1.685 1.685 1.685 1.69 1.695 1.695 1.695 1.699 1.699 1.704 1.704 1.704 1.709 1.709 1.714 1.718 1.718 1.728 1.728 1.733 1.738 1.738 1.748 1.753 1.753 1.758 1.758 1.763 1.768 1.768 1.768 1.773 1.773 1.773 1.778 1.778 1.778 1.778 1.784 1.784 1.784 1.784 1.789 1.789 1.794 1.794 1.794 1.799 1.799 1.799 1.805 1.805 1.805 1.805 1.81 1.815 1.815 1.815 1.815 1.815 1.821 1.821 1.826 1.826 1.826 1.832 1.837 1.837 1.837 1.837 1.843 1.843 1.843 1.848 1.854 1.854 1.854 1.854 1.854 1.86 1.86 1.86 1.865 1.865 1.865 1.865 1.865 1.871 1.871 1.871 1.871 1.871 1.877 1.877 1.877 1.882 1.882 1.882 1.888 1.888 1.888 1.888 1.888 1.894 1.894 1.894 1.894 1.894 1.906 1.906 1.906 1.912 1.912 1.924 1.93 1.93 1.936 1.942 1.942 1.948 1.948 1.955 1.961 1.961 1.967 1.973 1.973 1.973 1.973 1.98 1.98 1.98 1.986 1.986 1.986 1.993 1.993 1.999 2.012 2.012 2.019 2.026 2.026 2.039 2.039 2.046 2.06 2.06 2.067 2.074 2.074 2.081 2.081 2.081 2.095 2.095 2.102 2.11 2.11 2.124 2.132 2.132 2.139 2.139 2.147 2.162 2.162 2.162 2.169 2.169 2.169 2.169 2.169 2.169 2.169 2.169 2.169 2.169 2.169 2.169 2.169 2.177 2.177 2.185 2.193 2.193 2.201 2.201 2.217 2.225 2.225 2.233 2.241 2.241 2.249 2.249 2.258 2.258 2.258 2.266 2.283 2.283 2.291 2.291 2.3 2.317 2.317 2.326 2.344 2.344 2.353 2.362 2.362 2.38 2.38 2.399 2.418 2.418 2.447 2.467 2.467 2.487 2.487 2.507 2.528 2.528 2.549 2.56 2.56 2.56 2.56 2.56 2.56 2.56 2.56 2.56 2.56 2.56 2.56 2.549 2.549 2.549 2.549 2.549 2.539 2.539 2.539 2.528 2.528 2.518 2.497 2.497 2.487 2.487 2.477 2.467 2.467 2.457 2.457 2.457 2.447 2.447 2.447 0 0 0 0 0 0 0 0 0 0 0 0 0.187 0.187 0.187 0.186 0.186 0.186 0.185 0.185 0.185 0 0.184 0.183 0.183 0.182 0.18 0.18 0.18 0 0.178 0.177 0.177 0.177 0.176 0.176 0.176 0.176 0.176 0.176 0.176 0.176 0.175 0.175 0.175 0.175 0.175 0.175 0 0 0 0 0.172 0.172 0.172 0.172 0 0 0 0 0 0 0 0 0 0 0 0 0 0.535 0.533 0.533 0.532 0.532 0.53 0.529 0.529 0.526 0.523 0.523 0.52 0.52 0.518 0.515 0.515 0.513 0.512 0.512 0.51 0.51 0.508 0.506 0.506 0.172 0.172 0.172 0.172 0.172 0.172 0.499 0.499 0.173 0.173 0.173 0.173 0.173 0.173 0.173 0.173 0.173 0.173 0.173 0.173 0.173 0.173 0.173 0.173 0.482 0.48 0.48 0.479 0.477 0.477 0.476 0.476 0.475 0.474 0.474 0.472 0.471 0.471 0.469 0.469 0.468 0.467 0.467 0.465 0.463 0.463 0.462 0.462 0.461 0.459 0.459 0.458 0.456 0.456 0.455 0.455 0.454 0.453 0.453 0.451 0.45 0.45 0.449 0.449 0.447 0.446 0.446 0.445 0.444 0.444 0.442 0.442 0.441 0.44 0.44 0.439 0.438 0.438 0.437 0.437 0.435 0.435 0.435 0.433 0.432 0.432 0.43 0.429 0.429 0.427 0.427
1.748 1.723 1.723 1.704 1.69 1.69 1.685 1.685 1.685 1.681 1.681 1.681 1.681 1.681 1.681 1.681 1.681 1.681 1.681 1.681 1.681 1.681 1.681 1.681 1.681 1.681 1.681 1.681 1.681 1.681 1.681 1.685 1.685 1.685 1.69 1.69 1.69 1.695 1.695 1.695 1.699 1.699 1.704 1.704 1.704 1.709 1.709 1.714 1.718 1.718 1.728 1.728 1.733 1.738 1.738 1.748 1.753 1.753 1.758 1.758 1.763 1.768 1.768 1.768 1.773 1.773 1.773 1.778 1.778 1.778 1.778 1.784 1.784 1.784 1.784 1.789 1.789 1.794 1.794 1.794 1.799 1.799 1.799 1.805 1.805 1.805 1.805 1.81 1.815 1.815 1.815 1.815 1.815 1.821 1.821 1.826 1.826 1.826 1.832 1.837 1.837 1.837 1.837 1.843 1.843 1.843 1.848 1.854 1.854 1.854 1.854 1.854 1.86 1.86 1.86 1.865 1.865 1.865 1.865 1.865 1.871 1.871 1.871 1.871 1.871 1.877 1.877 1.877 1.882 1.882 1.882 1.888 1.888 1.888 1.888 1.888 1.894 1.894 1.894 1.894 1.894 1.906 1.906 1.906 1.912 1.912 1.924 1.93 1.93 1.936 1.942 1.942 1.948 1.948 1.955 1.961 1.961 1.967 1.973 1.973 1.973 1.973 1.98 1.98 1.98 1.986 1.986 1.986 1.993 1.993 1.999 2.012 2.012 2.019 2.026 2.026 2.039 2.039 2.046 2.06 2.06 2.067 2.074 2.074 2.06 2.06 2.06 2.067 2.067 2.074 2.081 2.081 2.095 2.102 2.102 2.11 2.11 2.117 2.132 2.132 2.139 2.139 2.139 2.139 2.139 2.139 2.139 2.132 2.132 2.132 2.132 2.139 2.139 2.147 2.154 2.154 2.162 2.169 2.169 2.185 2.185 2.193 2.201 2.201 2.217 2.225 2.225 2.233 2.233 2.233 2.241 2.241 2.241 2.249 2.249 2.258 2.258 2.258 2.274 2.274 2.283 2.3 2.3 2.309 2.326 2.326 2.344 2.344 2.371 2.399 2.399 2.428 2.447 2.447 2.477 2.477 2.487 2.507 2.507 2.539 2.549 2.549 2.56 2.549 2.549 2.549 2.549 2.549 2.549 2.549 2.549 2.549 2.549 2.549 2.549 2.549 2.549 2.539 2.539 2.539 2.528 2.528 2.518 2.497 2.497 2.487 2.487 2.477 2.467 2.467 2.457 2.447 2.447 2.437 2.437 2.437 0 0 0 0 0 0 0 0 0 0 0 0 0.187 0.187 0.187 0.186 0.186 0.186 0.185 0.185 0.185 0 0.184 0.183 0.183 0.182 0.18 0.18 0.18 0 0.178 0.177 0.177 0.177 0.176 0.176 0.176 0.176 0.176 0.176 0.176 0.176 0.176 0.176 0.176 0.175 0.175 0.175 0 0 0 0 0.172 0.172 0.172 0.172 0 0 0 0 0 0 0 0 0 0 0 0 0 0.534 0.532 0.532 0.531 0.531 0.53 0.528 0.528 0.526 0.523 0.523 0.52 0.52 0.518 0.516 0.516 0.514 0.512 0.512 0.51 0.51 0.508 0.506 0.506 0.504 0.503 0.172 0.172 0.501 0.5 0.499 0.499 0.173 0.173 0.173 0.173 0.173 0.173 0.173 0.173 0.173 0.173 0.173 0.173 0.173 0.173 0.173 0.173 0.482 0.48 0.48 0.479 0.479 0.477 0.476 0.476 0.475 0.474 0.474 0.472 0.471 0.471 0.47 0.47 0.468 0.467 0.467 0.465 0.464 0.464 0.462 0.462 0.461 0.459 0.459 0.458 0.456 0.456 0.455 0.455 0.454 0.453 0.453 0.451 0.45 0.45 0.448 0.448 0.447 0.446 0.446 0.445 0.444 0.444 0.442 0.442 0.441 0.44 0.44 0.439 0.438 0.438 0.437 0.437 0.436 0.435 0.435 0.434 0.432 0.432 0.431 0.431 0.429 0.427 0.427
1.784 1.758 1.758 1.733 1.714 1.714 1.704 1.695 1.695 1.69 1.69 1.69 1.69 1.69 1.685 1.685 1.685 1.685 1.685 1.685 1.685 1.685 1.685 1.685 1.685 1.685 1.685 1.685 1.685 1.685 1.685 1.685 1.69 1.69 1.69 1.69 1.69 1.695 1.695 1.695 1.699 1.699 1.704 1.704 1.704 1.709 1.709 1.714 1.718 1.718 1.728 1.728 1.733 1.738 1.738 1.748 1.753 1.753 1.758 1.758 1.763 1.768 1.768 1.768 1.768 1.768 1.773 1.778 1.778 1.778 1.778 1.784 1.784 1.784 1.784 1.789 1.789 1.794 1.794 1.794 1.799 1.799 1.805 1.805 1.805 1.81 1.81 1.81 1.815 1.815 1.821 1.821 1.821 1.821 1.821 1.826 1.832 1.832 1.832 1.837 1.837 1.837 1.837 1.843 1.848 1.848 1.848 1.854 1.854 1.86 1.86 1.86 1.86 1.86 1.86 1.865 1.865 1.865 1.865 1.865 1.871 1.871 1.871 1.871 1.871 1.877 1.877 1.877 1.877 1.877 1.882 1.882 1.882 1.882 1.888 1.888 1.888 1.888 1.894 1.894 1.894 1.9 1.906 1.906 1.912 1.912 1.918 1.924 1.924 1.93 1.936 1.936 1.942 1.942 1.948 1.955 1.955 1.961 1.967 1.967 1.967 1.967 1.973 1.98 1.98 1.98 1.98 1.98 1.986 1.986 1.993 1.999 1.999 2.006 2.012 2.012 2.019 2.019 2.033 2.039 2.039 2.046 2.053 2.053 2.06 2.06 2.06 2.067 2.067 2.074 2.081 2.081 2.095 2.102 2.102 2.11 2.11 2.117 2.132 2.132 2.139 2.139 2.139 2.139 2.139 2.139 2.139 2.132 2.132 2.132 2.132 2.139 2.139 2.147 2.154 2.154 2.162 2.169 2.169 2.185 2.185 2.193 2.201 2.201 2.217 2.225 2.225 2.233 2.233 2.233 2.241 2.241 2.241 2.249 2.249 2.258 2.258 2.258 2.274 2.274 2.283 2.3 2.3 2.309 2.326 2.326 2.344 2.335 2.335 2.362 2.362 2.399 2.428 2.428 2.457 2.457 2.477 2.497 2.497 2.528 2.539 2.539 2.539 2.539 2.539 2.539 2.539 2.539 2.539 2.539 2.539 2.539 2.549 2.549 2.549 2.549 2.549 2.539 2.539 2.539 2.528 2.528 2.518 2.497 2.497 2.487 2.487 2.467 2.457 2.457 2.447 2.437 2.437 2.428 2.428 2.428 0 0 0 0 0 0 0 0 0 0 0 0 0.187 0.187 0.187 0.187 0.187 0.187 0.186 0.186 0.186 0 0.185 0.185 0 0.182 0.18 0.18 0.18 0 0.178 0.177 0.177 0.177 0.176 0.176 0.176 0.176 0.176 0.176 0.176 0.176 0.176 0.176 0.176 0.175 0.175 0.175 0 0 0 0 0 0 0 0 0 0 0 0 0 0 0 0 0 0 0 0.534 0.534 0.534 0.532 0.532 0.531 0.531 0.53 0.528 0.528 0.526 0.523 0.523 0.521 0.521 0.518 0.516 0.516 0.514 0.512 0.512 0.51 0.51 0.508 0.506 0.506 0.504 0.503 0.503 0.501 0.501 0.5 0.499 0.499 0.497 0.496 0.173 0.173 0.173 0.173 0.173 0.173 0.173 0.173 0.173 0.173 0.173 0.173 0.484 0.484 0.482 0.48 0.48 0.479 0.479 0.477 0.476 0.476 0.475 0.474 0.474 0.472 0.471 0.471 0.469 0.469 0.468 0.467 0.467 0.465 0.463 0.463 0.462 0.462 0.461 0.459 0.459 0.458 0.456 0.456 0.455 0.455 0.454 0.452 0.452 0.451 0.45 0.45 0.448 0.448 0.447 0.446 0.446 0.445 0.444 0.444 0.442 0.442 0.441 0.44 0.44 0.439 0.438 0.438 0.437 0.437 0.436 0.435 0.435 0.434 0.432 0.432 0.431 0.431 0.429 0.427 0.427
1.784 1.758 1.758 1.733 1.714 1.714 1.704 1.695 1.695 1.69 1.69 1.69 1.69 1.69 1.685 1.685 1.685 1.685 1.685 1.685 1.685 1.685 1.685 1.685 1.685 1.685 1.685 1.685 1.685 1.685 1.685 1.685 1.69 1.69 1.69 1.69 1.69 1.695 1.695 1.695 1.699 1.699 1.704 1.704 1.704 1.709 1.709 1.714 1.718 1.718 1.728 1.728 1.733 1.738 1.738 1.748 1.753 1.753 1.758 1.758 1.763 1.768 1.768 1.768 1.768 1.768 1.773 1.778 1.778 1.778 1.778 1.784 1.784 1.784 1.784 1.789 1.789 1.794 1.794 1.799 1.799 1.799 1.805 1.81 1.81 1.815 1.815 1.815 1.815 1.815 1.821 1.826 1.826 1.826 1.826 1.826 1.832 1.832 1.832 1.837 1.837 1.843 1.843 1.843 1.848 1.848 1.848 1.854 1.854 1.86 1.86 1.86 1.86 1.86 1.86 1.865 1.865 1.865 1.865 1.865 1.871 1.871 1.871 1.871 1.871 1.877 1.877 1.877 1.877 1.877 1.882 1.882 1.882 1.882 1.888 1.888 1.888 1.888 1.894 1.894 1.894 1.9 1.906 1.906 1.912 1.912 1.918 1.918 1.918 1.924 1.93 1.93 1.936 1.936 1.942 1.955 1.955 1.955 1.961 1.961 1.961 1.961 1.967 1.973 1.973 1.973 1.98 1.98 1.98 1.98 1.986 1.993 1.993 1.999 2.006 2.006 2.012 2.012 2.012 2.019 2.019 2.026 2.033 2.033 2.033 2.039 2.039 2.046 2.046 2.053 2.06 2.06 2.067 2.074 2.074 2.081 2.081 2.095 2.102 2.102 2.102 2.11 2.11 2.11 2.11 2.11 2.11 2.11 2.11 2.11 2.11 2.11 2.11 2.117 2.124 2.124 2.139 2.154 2.154 2.162 2.162 2.169 2.185 2.185 2.193 2.201 2.201 2.201 2.201 2.209 2.209 2.209 2.209 2.217 2.217 2.217 2.217 2.225 2.241 2.241 2.249 2.258 2.258 2.274 2.291 2.291 2.309 2.309 2.335 2.362 2.362 2.399 2.428 2.428 2.457 2.457 2.477 2.497 2.497 2.528 2.539 2.539 2.539 2.539 2.539 2.539 2.539 2.539 2.539 2.539 2.539 2.539 2.549 2.549 2.549 2.549 2.549 2.539 2.539 2.539 2.528 2.528 2.518 2.497 2.497 2.487 2.487 2.467 2.457 2.457 2.447 2.437 2.437 2.428 2.428 2.428 0 0 0 0 0 0 0 0 0 0 0 0 0 0 0 0.187 0.187 0.187 0.187 0 0 0 0 0 0 0 0 0 0 0 0.178 0.177 0.177 0.177 0.176 0.176 0.176 0.176 0.176 0.176 0.176 0.176 0.176 0.176 0.176 0.176 0.176 0 0 0 0 0 0 0 0 0 0 0 0 0 0 0 0 0 0 0 0 0.534 0.534 0.533 0.532 0.532 0.53 0.53 0.529 0.527 0.527 0.526 0.523 0.523 0.52 0.52 0.518 0.515 0.515 0.514 0.511 0.511 0.51 0.51 0.508 0.506 0.506 0.504 0.503 0.503 0.501 0.501 0.5 0.499 0.499 0.497 0.496 0.173 0.173 0.173 0.173 0.174 0.174 0.173 0.173 0.173 0.173 0.173 0.173 0.484 0.484 0.482 0.48 0.48 0.479 0.479 0.477 0.476 0.476 0.475 0.474 0.474 0.472 0.471 0.471 0.469 0.469 0.468 0.467 0.467 0.465 0.463 0.463 0.462 0.462 0.461 0.459 0.459 0.458 0.456 0.456 0.455 0.455 0.454 0.452 0.452 0.451 0.45 0.45 0.448 0.448 0.447 0.446 0.446 0.445 0.443 0.443 0.442 0.442 0.441 0.44 0.44 0.439 0.438 0.438 0.437 0.437 0.436 0.435 0.435 0.434 0.432 0.432 0.431 0.431 0.429 0.427 0.427
1.826 1.794 1.794 1.763 1.738 1.738 1.723 1.709 1.709 1.699 1.699 1.699 1.699 1.699 1.695 1.695 1.695 1.695 1.695 1.695 1.69 1.69 1.69 1.69 1.69 1.69 1.69 1.69 1.69 1.69 1.69 1.69 1.69 1.69 1.695 1.695 1.695 1.695 1.695 1.699 1.699 1.699 1.704 1.704 1.704 1.709 1.709 1.714 1.723 1.723 1.728 1.728 1.733 1.738 1.738 1.748 1.753 1.753 1.758 1.758 1.763 1.768 1.768 1.768 1.768 1.768 1.773 1.773 1.773 1.778 1.778 1.784 1.784 1.784 1.784 1.789 1.789 1.794 1.794 1.799 1.799 1.799 1.805 1.81 1.81 1.815 1.815 1.815 1.815 1.815 1.821 1.826 1.826 1.826 1.826 1.826 1.832 1.832 1.832 1.837 1.837 1.843 1.843 1.843 1.848 1.848 1.848 1.854 1.854 1.86 1.86 1.86 1.86 1.86 1.86 1.865 1.865 1.865 1.865 1.865 1.871 1.871 1.871 1.871 1.871 1.871 1.877 1.877 1.877 1.877 1.877 1.877 1.877 1.882 1.882 1.882 1.888 1.888 1.888 1.894 1.894 1.894 1.9 1.9 1.906 1.906 1.912 1.918 1.918 1.924 1.93 1.93 1.936 1.936 1.942 1.955 1.955 1.955 1.961 1.961 1.961 1.961 1.967 1.973 1.973 1.973 1.98 1.98 1.98 1.98 1.986 1.993 1.993 1.999 2.006 2.006 2.012 2.012 2.012 2.019 2.019 2.026 2.033 2.033 2.033 2.039 2.039 2.046 2.046 2.053 2.06 2.06 2.067 2.074 2.074 2.081 2.081 2.095 2.102 2.102 2.102 2.11 2.11 2.11 2.11 2.11 2.11 2.11 2.11 2.11 2.11 2.11 2.11 2.117 2.124 2.124 2.124 2.124 2.124 2.139 2.139 2.154 2.162 2.162 2.169 2.185 2.185 2.185 2.185 2.185 2.185 2.185 2.185 2.185 2.185 2.193 2.193 2.193 2.209 2.209 2.217 2.258 2.241 2.241 2.258 2.258 2.274 2.274 2.309 2.335 2.335 2.371 2.399 2.399 2.428 2.428 2.447 2.477 2.477 2.497 2.518 2.518 2.528 2.518 2.518 2.518 2.518 2.518 2.528 2.528 2.528 2.528 2.539 2.549 2.549 2.539 2.539 2.539 2.539 2.528 2.528 2.528 2.507 2.497 2.497 2.487 2.487 2.467 2.447 2.447 2.437 2.428 2.428 2.418 2.418 2.418 0 0 0 0 0 0 0 0 0 0 0 0 0 0 0 0.187 0.187 0.187 0.187 0.187 0.187 0 0 0 0 0 0 0 0 0 0 0 0 0.177 0.176 0.176 0.176 0.176 0.176 0.176 0.176 0.176 0.176 0.176 0.176 0.176 0.176 0 0 0 0 0 0 0 0 0 0 0 0 0 0 0 0 0 0 0 0 0.534 0.534 0.532 0.531 0.531 0.53 0.53 0.529 0.527 0.527 0.525 0.522 0.522 0.52 0.52 0.518 0.515 0.515 0.514 0.511 0.511 0.51 0.51 0.508 0.506 0.506 0.504 0.503 0.503 0.501 0.501 0.5 0.499 0.499 0.497 0.496 0.173 0.173 0.173 0.173 0.174 0.174 0.173 0.173 0.173 0.173 0.173 0.173 0.484 0.484 0.482 0.48 0.48 0.479 0.479 0.477 0.476 0.476 0.475 0.474 0.474 0.472 0.471 0.471 0.469 0.469 0.468 0.467 0.467 0.465 0.464 0.464 0.462 0.462 0.461 0.459 0.459 0.457 0.456 0.456 0.455 0.455 0.454 0.452 0.452 0.451 0.449 0.449 0.448 0.448 0.447 0.445 0.445 0.444 0.443 0.443 0.442 0.442 0.441 0.44 0.44 0.439 0.438 0.438 0.437 0.437 0.436 0.435 0.435 0.434 0.432 0.432 0.431 0.431 0.429 0.427 0.427
1.877 1.837 1.837 1.799 1.763 1.763 1.743 1.728 1.728 1.714 1.714 1.709 1.704 1.704 1.704 1.704 1.704 1.704 1.704 1.704 1.699 1.699 1.699 1.699 1.699 1.699 1.699 1.695 1.695 1.695 1.695 1.695 1.695 1.695 1.699 1.699 1.699 1.699 1.699 1.699 1.699 1.699 1.704 1.704 1.709 1.709 1.709 1.714 1.723 1.723 1.728 1.728 1.733 1.738 1.738 1.748 1.753 1.753 1.758 1.758 1.763 1.768 1.768 1.768 1.768 1.768 1.773 1.773 1.773 1.778 1.778 1.784 1.784 1.784 1.784 1.789 1.789 1.794 1.794 1.799 1.805 1.805 1.805 1.81 1.81 1.815 1.815 1.821 1.821 1.821 1.826 1.826 1.826 1.826 1.826 1.832 1.837 1.837 1.837 1.837 1.837 1.843 1.843 1.843 1.848 1.848 1.854 1.854 1.854 1.86 1.86 1.86 1.86 1.86 1.86 1.86 1.86 1.865 1.865 1.865 1.865 1.865 1.871 1.871 1.871 1.871 1.871 1.871 1.877 1.877 1.877 1.877 1.877 1.882 1.882 1.882 1.882 1.882 1.888 1.894 1.894 1.894 1.9 1.9 1.9 1.9 1.906 1.912 1.912 1.924 1.924 1.924 1.936 1.936 1.942 1.948 1.948 1.955 1.955 1.955 1.961 1.961 1.961 1.967 1.967 1.967 1.973 1.973 1.973 1.973 1.98 1.986 1.986 1.986 1.999 1.999 1.999 1.999 2.006 2.012 2.012 2.012 2.012 2.012 2.012 2.019 2.019 2.019 2.019 2.026 2.033 2.033 2.046 2.053 2.053 2.06 2.06 2.067 2.074 2.074 2.081 2.081 2.081 2.081 2.081 2.081 2.081 2.081 2.081 2.081 2.081 2.088 2.088 2.095 2.102 2.102 2.117 2.124 2.124 2.139 2.139 2.154 2.162 2.162 2.169 2.185 2.185 2.185 2.185 2.185 2.185 2.185 2.185 2.185 2.185 2.193 2.193 2.193 2.209 2.209 2.217 0 2.241 2.241 2.258 2.258 2.274 2.274 2.309 2.335 2.335 2.371 2.399 2.399 2.428 2.418 2.418 2.437 2.437 2.467 2.487 2.487 2.487 2.487 2.497 2.497 2.497 2.507 2.507 2.507 2.518 2.518 2.539 2.539 2.539 2.539 2.539 2.528 2.528 2.528 2.518 2.518 2.507 2.487 2.487 2.477 2.477 2.457 2.437 2.437 2.437 2.418 2.418 2.418 2.418 2.418 0 0 0 0 0 0 0 0 0 0 0 0 0 0 0 0 0 0.187 0.187 0.187 0.187 0 0 0 0 0 0 0 0 0 0 0 0 0.177 0.176 0.176 0.176 0.176 0.176 0.176 0.176 0.176 0.176 0.176 0.176 0.176 0.176 0 0 0 0 0 0 0 0 0 0 0 0 0 0 0 0 0 0 0 0 0.534 0.534 0.532 0.531 0.531 0.53 0.53 0.529 0.527 0.527 0.525 0.522 0.522 0.52 0.52 0.518 0.515 0.515 0.513 0.511 0.511 0.509 0.509 0.508 0.506 0.506 0.504 0.503 0.503 0.501 0.501 0.5 0.499 0.499 0.497 0.496 0.496 0.495 0.495 0.493 0.491 0.491 0.49 0.489 0.489 0.487 0.487 0.485 0.484 0.484 0.482 0.48 0.48 0.479 0.479 0.477 0.476 0.476 0.475 0.474 0.474 0.472 0.471 0.471 0.469 0.469 0.468 0.467 0.467 0.465 0.464 0.464 0.462 0.462 0.461 0.459 0.459 0.457 0.456 0.456 0.454 0.454 0.453 0.452 0.452 0.45 0.449 0.449 0.448 0.448 0.447 0.445 0.445 0.444 0.443 0.443 0.442 0.442 0.441 0.44 0.44 0.44 0.438 0.438 0.437 0.437 0.436 0.435 0.435 0.434 0.432 0.432 0.431 0.431 0.429 0.427 0.427
1.936 1.837 1.837 1.799 1.763 1.763 1.743 1.728 1.728 1.714 1.714 1.709 1.704 1.704 1.704 1.704 1.704 1.704 1.704 1.704 1.699 1.699 1.699 1.699 1.699 1.699 1.699 1.695 1.695 1.695 1.695 1.695 1.695 1.695 1.699 1.699 1.699 1.699 1.699 1.699 1.699 1.699 1.704 1.704 1.709 1.709 1.709 1.714 1.723 1.723 1.728 1.728 1.733 1.738 1.738 1.748 1.753 1.753 1.758 1.758 1.758 1.763 1.763 1.768 1.768 1.768 1.773 1.773 1.773 1.773 1.773 1.778 1.784 1.784 1.784 1.789 1.789 1.794 1.794 1.799 1.805 1.805 1.81 1.81 1.81 1.815 1.815 1.821 1.826 1.826 1.826 1.832 1.832 1.832 1.832 1.832 1.837 1.837 1.837 1.843 1.843 1.843 1.843 1.843 1.848 1.848 1.854 1.854 1.854 1.86 1.86 1.86 1.86 1.86 1.86 1.86 1.86 1.865 1.865 1.865 1.865 1.865 1.871 1.871 1.871 1.871 1.871 1.871 1.877 1.877 1.877 1.877 1.877 1.882 1.882 1.882 1.882 1.882 1.888 1.894 1.894 1.894 1.9 1.9 1.9 1.9 1.906 1.912 1.912 1.924 1.924 1.924 1.936 1.936 1.942 1.948 1.948 1.955 1.955 1.955 1.961 1.961 1.961 1.967 1.967 1.967 1.973 1.973 1.973 1.973 1.973 1.98 1.98 1.98 1.986 1.986 1.993 1.993 1.999 1.999 1.999 2.006 2.006 2.006 2.006 2.006 2.006 2.012 2.012 2.019 2.026 2.026 2.033 2.039 2.039 2.039 2.039 2.046 2.053 2.053 2.06 2.06 2.06 2.06 2.06 2.06 2.06 2.06 2.06 2.06 2.06 2.067 2.067 2.074 2.081 2.081 2.102 2.11 2.11 2.124 2.124 2.139 2.147 2.147 2.154 2.162 2.162 2.162 2.162 2.162 2.162 2.162 2.162 2.162 2.162 2.162 2.162 2.169 2.177 2.177 2.185 2.193 2.193 2.209 2.209 2.225 2.249 2.249 2.274 2.3 2.3 2.335 2.362 2.362 2.39 2.39 2.418 2.437 2.437 2.467 2.487 2.487 2.487 2.487 2.497 2.497 2.497 2.507 2.507 2.507 2.518 2.518 2.539 2.539 2.539 2.539 2.539 2.528 2.528 2.528 2.518 2.518 2.507 2.487 2.487 2.477 2.477 2.457 2.437 2.437 2.437 2.418 2.418 2.418 0 0 0 0 0 0 0 0 0 0 0 0 0 0 0 0 0 0 0 0 0 0 0 0 0 0 0 0 0 0 0 0 0 0 0 0 0.176 0.176 0.176 0.176 0.176 0.176 0.176 0.176 0 0 0 0 0 0 0 0 0 0 0 0 0 0 0 0 0 0 0 0 0 0 0 0 0.535 0.533 0.533 0.532 0.53 0.53 0.529 0.529 0.528 0.526 0.526 0.525 0.522 0.522 0.52 0.52 0.517 0.515 0.515 0.513 0.511 0.511 0.509 0.509 0.508 0.506 0.506 0.504 0.503 0.503 0.501 0.501 0.5 0.499 0.499 0.497 0.496 0.496 0.495 0.495 0.493 0.492 0.492 0.49 0.489 0.489 0.487 0.487 0.485 0.484 0.484 0.482 0.48 0.48 0.479 0.479 0.477 0.476 0.476 0.475 0.474 0.474 0.472 0.471 0.471 0.47 0.47 0.468 0.467 0.467 0.465 0.464 0.464 0.462 0.462 0.461 0.459 0.459 0.457 0.456 0.456 0.454 0.454 0.453 0.452 0.452 0.45 0.449 0.449 0.448 0.448 0.446 0.445 0.445 0.444 0.443 0.443 0.442 0.442 0.441 0.44 0.44 0.439 0.438 0.438 0.437 0.437 0.436 0.435 0.435 0.434 0.432 0.432 0.431 0.431 0.429 0.427 0.427
1.936 1.888 1.888 1.848 1.805 1.805 1.778 1.748 1.748 1.733 1.733 1.723 1.718 1.718 1.718 1.714 1.714 1.714 1.714 1.714 1.709 1.709 1.709 1.709 1.709 1.704 1.704 1.704 1.704 1.704 1.704 1.704 1.704 1.704 1.704 1.704 1.704 1.704 1.704 1.704 1.704 1.704 1.704 1.704 1.709 1.714 1.714 1.714 1.723 1.723 1.728 1.728 1.733 1.738 1.738 1.748 1.748 1.748 1.758 1.758 1.758 1.763 1.763 1.763 1.768 1.768 1.768 1.773 1.773 1.773 1.773 1.778 1.784 1.784 1.784 1.789 1.789 1.794 1.794 1.799 1.805 1.805 1.81 1.81 1.81 1.815 1.815 1.821 1.826 1.826 1.826 1.832 1.832 1.832 1.832 1.832 1.837 1.837 1.837 1.843 1.843 1.843 1.843 1.843 1.848 1.848 1.848 1.854 1.854 1.854 1.854 1.854 1.854 1.854 1.86 1.86 1.86 1.86 1.86 1.865 1.865 1.865 1.865 1.871 1.871 1.871 1.871 1.871 1.877 1.877 1.877 1.877 1.877 1.882 1.882 1.882 1.882 1.882 1.888 1.888 1.888 1.894 1.894 1.894 1.9 1.9 1.906 1.912 1.912 1.918 1.924 1.924 1.93 1.93 1.936 1.948 1.948 1.948 1.955 1.955 1.955 1.955 1.961 1.961 1.961 1.967 1.967 1.967 1.973 1.973 1.973 1.98 1.98 1.98 1.986 1.986 1.993 1.993 1.999 1.999 1.999 2.006 2.006 2.006 2.006 2.006 2.006 2.012 2.012 2.019 2.026 2.026 2.033 2.039 2.039 2.039 2.039 2.046 2.053 2.053 2.06 2.06 2.06 2.06 2.06 2.06 2.06 2.06 2.06 2.06 2.06 2.067 2.067 2.074 2.081 2.081 2.102 2.11 2.11 2.124 2.124 2.139 2.147 2.147 2.154 2.162 2.162 2.162 2.162 2.162 2.162 2.162 2.162 2.162 2.162 2.162 2.162 2.169 2.177 2.177 2.185 2.193 2.193 2.209 2.193 2.193 2.209 2.209 2.241 2.274 2.274 2.309 2.335 2.335 2.362 2.362 2.38 2.399 2.399 2.428 2.447 2.447 2.467 2.467 2.467 2.477 2.477 2.487 2.497 2.497 2.507 2.507 2.518 2.528 2.528 2.528 2.528 2.528 2.528 2.528 2.507 2.507 2.497 2.477 2.477 2.467 2.467 2.447 2.428 2.428 2.418 2.418 2.418 2.418 0 0 0 0 0 0 0 0 0 0 0 0 0 0 0 0 0 0 0 0 0 0 0 0 0 0 0 0 0 0 0 0 0 0 0 0 0.176 0.176 0.176 0.176 0.176 0.176 0.176 0.176 0 0 0 0 0 0 0 0 0 0 0 0 0 0 0 0 0 0 0 0 0 0 0.536 0.536 0.534 0.532 0.532 0.53 0.529 0.529 0.528 0.528 0.528 0.526 0.526 0.525 0.522 0.522 0.52 0.52 0.517 0.515 0.515 0.513 0.511 0.511 0.509 0.509 0.507 0.506 0.506 0.504 0.502 0.502 0.501 0.501 0.5 0.498 0.498 0.497 0.496 0.496 0.495 0.495 0.493 0.492 0.492 0.49 0.489 0.489 0.487 0.487 0.486 0.484 0.484 0.482 0.48 0.48 0.479 0.479 0.478 0.476 0.476 0.475 0.474 0.474 0.472 0.472 0.471 0.47 0.47 0.468 0.467 0.467 0.465 0.463 0.463 0.462 0.462 0.46 0.459 0.459 0.457 0.456 0.456 0.454 0.454 0.453 0.452 0.452 0.45 0.449 0.449 0.447 0.447 0.446 0.445 0.445 0.444 0.443 0.443 0.442 0.442 0.441 0.44 0.44 0.439 0.438 0.438 0.437 0.437 0.436 0.435 0.435 0.434 0.432 0.432 0.431 0.431 0.429 0.427 0.427
1.993 1.948 1.948 1.9 1.848 1.848 1.81 1.778 1.778 1.758 1.758 1.743 1.733 1.733 1.728 1.723 1.723 1.723 1.728 1.728 1.728 1.728 1.723 1.723 1.723 1.723 1.723 1.718 1.714 1.714 1.714 1.714 1.714 1.709 1.709 1.709 1.709 1.709 1.704 1.704 1.704 1.704 1.709 1.709 1.709 1.714 1.714 1.718 1.723 1.723 1.728 1.728 1.733 1.738 1.738 1.748 1.748 1.748 1.758 1.758 1.758 1.763 1.763 1.763 1.768 1.768 1.768 1.773 1.773 1.773 1.773 1.778 1.784 1.784 1.784 1.789 1.789 1.794 1.794 1.799 1.805 1.805 1.81 1.815 1.815 1.821 1.821 1.821 1.826 1.826 1.826 1.832 1.832 1.832 1.832 1.832 1.837 1.837 1.837 1.843 1.843 1.843 1.843 1.843 1.848 1.848 1.848 1.854 1.854 1.854 1.854 1.854 1.854 1.854 1.854 1.854 1.854 1.86 1.86 1.86 1.865 1.865 1.865 1.871 1.871 1.871 1.871 1.871 1.877 1.877 1.877 1.882 1.882 1.882 1.882 1.882 1.882 1.882 1.888 1.888 1.888 1.894 1.894 1.894 1.9 1.9 1.906 1.906 1.906 1.918 1.918 1.918 1.93 1.93 1.936 1.942 1.942 1.948 1.955 1.955 1.955 1.955 1.961 1.961 1.961 1.961 1.961 1.961 1.967 1.967 1.967 1.973 1.973 1.973 1.98 1.98 1.986 1.986 1.986 1.993 1.993 1.993 1.993 1.993 1.999 1.999 1.999 2.006 2.006 2.006 2.012 2.012 2.019 2.033 2.033 2.033 2.033 2.039 2.046 2.046 2.053 2.053 2.053 2.053 2.053 2.053 2.053 2.053 2.053 2.053 2.053 2.06 2.06 2.067 2.081 2.081 2.088 2.102 2.102 2.117 2.117 2.124 2.139 2.139 2.139 2.147 2.147 2.147 2.147 2.147 2.147 2.147 2.147 2.147 2.139 2.139 2.139 2.147 2.147 2.147 2.154 2.169 2.169 2.185 2.185 2.193 2.209 2.209 2.241 2.274 2.274 2.309 2.335 2.335 2.362 2.362 2.38 2.399 2.399 2.428 2.447 2.447 2.467 2.467 2.467 2.477 2.477 2.487 2.497 2.497 2.507 2.507 2.518 2.528 2.518 2.518 2.528 2.518 2.518 2.518 2.507 2.507 2.497 2.477 2.477 2.467 2.467 2.447 2.428 2.428 2.418 2.418 0 0 0 0 0 0 0 0 0 0 0 0 0 0 0 0 0 0 0 0 0 0 0 0 0 0 0 0 0 0 0 0 0 0 0 0 0 0 0 0 0 0 0 0 0 0 0 0 0 0 0 0 0 0 0 0 0 0 0 0 0 0 0 0 0 0 0 0 0.536 0.536 0.534 0.532 0.532 0.53 0.529 0.529 0.528 0.528 0.526 0.525 0.525 0.523 0.521 0.521 0.519 0.519 0.517 0.515 0.515 0.512 0.511 0.511 0.509 0.509 0.507 0.506 0.506 0.504 0.502 0.502 0.501 0.501 0.499 0.498 0.498 0.497 0.496 0.496 0.495 0.495 0.493 0.492 0.492 0.491 0.489 0.489 0.487 0.487 0.486 0.484 0.484 0.482 0.48 0.48 0.479 0.479 0.478 0.476 0.476 0.475 0.474 0.474 0.472 0.472 0.471 0.47 0.47 0.468 0.467 0.467 0.465 0.463 0.463 0.462 0.462 0.46 0.459 0.459 0.457 0.455 0.455 0.454 0.454 0.453 0.452 0.452 0.45 0.449 0.449 0.447 0.447 0.446 0.445 0.445 0.444 0.443 0.443 0.442 0.442 0.441 0.44 0.44 0.439 0.438 0.438 0.437 0.437 0.436 0.435 0.435 0.434 0.432 0.432 0.431 0.431 0.429 0.427 0.427
2.06 2.012 2.012 1.9 1.848 1.848 1.81 1.778 1.778 1.758 1.758 1.743 1.733 1.733 1.728 1.723 1.723 1.723 1.728 1.728 1.728 1.728 1.723 1.723 1.723 1.723 1.723 1.718 1.714 1.714 1.714 1.714 1.714 1.709 1.709 1.709 1.709 1.709 1.704 1.704 1.704 1.704 1.709 1.709 1.709 1.714 1.714 1.718 1.723 1.723 1.728 1.728 1.733 1.738 1.738 1.743 1.748 1.748 1.753 1.753 1.758 1.758 1.758 1.763 1.768 1.768 1.768 1.773 1.773 1.773 1.773 1.778 1.778 1.778 1.784 1.789 1.789 1.794 1.794 1.799 1.805 1.805 1.81 1.815 1.815 1.821 1.821 1.821 1.826 1.826 1.826 1.832 1.832 1.832 1.832 1.832 1.837 1.837 1.837 1.843 1.843 1.843 1.843 1.843 1.848 1.848 1.848 1.848 1.848 1.854 1.854 1.854 1.854 1.854 1.854 1.854 1.854 1.86 1.86 1.86 1.865 1.865 1.865 1.871 1.871 1.871 1.871 1.871 1.877 1.877 1.877 1.882 1.882 1.882 1.882 1.882 1.882 1.882 1.888 1.888 1.888 1.894 1.894 1.894 1.9 1.9 1.906 1.906 1.906 1.918 1.918 1.918 1.93 1.93 1.936 1.942 1.942 1.948 1.955 1.955 1.955 1.955 1.961 1.961 1.961 1.961 1.961 1.961 1.967 1.967 1.967 1.973 1.973 1.973 1.98 1.98 1.986 1.986 1.986 1.993 1.993 1.993 1.993 1.993 1.999 1.999 1.999 2.006 2.006 2.006 2.012 2.012 2.019 2.033 2.033 2.033 2.033 2.033 2.039 2.039 2.046 2.046 2.046 2.046 2.046 2.046 2.046 2.046 2.046 2.046 2.046 2.053 2.053 2.06 2.074 2.074 2.081 2.095 2.095 2.102 2.102 2.117 2.124 2.124 2.132 2.139 2.139 2.139 2.139 2.139 2.139 2.139 2.132 2.132 2.124 2.124 2.124 2.124 2.132 2.132 2.139 2.147 2.147 2.162 2.162 2.177 2.193 2.193 2.217 2.249 2.249 2.283 2.3 2.3 2.326 2.326 2.344 2.362 2.362 2.39 2.409 2.409 2.428 2.428 2.437 2.447 2.447 2.457 2.477 2.477 2.487 2.487 2.507 2.518 2.518 2.518 2.528 2.518 2.518 2.507 2.507 2.507 2.487 2.467 2.467 2.457 2.457 2.428 2.418 2.418 2.399 2.399 0 0 0 0 0 0 0 0 0 0 0 0 0 0 0 0 0 0 0 0 0 0 0 0 0 0 0 0 0 0 0 0 0 0 0 0 0 0 0 0 0 0 0 0 0 0 0 0 0 0 0 0 0 0 0 0 0 0 0 0 0 0 0 0.541 0.541 0.539 0.539 0.537 0.536 0.536 0.533 0.531 0.531 0.53 0.529 0.528 0.526 0.526 0.526 0.524 0.524 0.522 0.52 0.52 0.518 0.518 0.516 0.514 0.514 0.512 0.511 0.511 0.509 0.509 0.507 0.506 0.506 0.504 0.502 0.502 0.501 0.501 0.499 0.498 0.498 0.497 0.496 0.496 0.495 0.495 0.493 0.492 0.492 0.491 0.489 0.489 0.487 0.487 0.486 0.484 0.484 0.482 0.48 0.48 0.479 0.479 0.478 0.477 0.477 0.475 0.474 0.474 0.472 0.472 0.471 0.47 0.47 0.468 0.467 0.467 0.465 0.463 0.463 0.462 0.462 0.46 0.459 0.459 0.457 0.455 0.455 0.454 0.454 0.453 0.451 0.451 0.45 0.448 0.448 0.447 0.447 0.446 0.445 0.445 0.444 0.442 0.442 0.442 0.442 0.44 0.44 0.44 0.439 0.438 0.438 0.437 0.437 0.436 0.435 0.435 0.434 0.432 0.432 0.431 0.431 0.429 0.427 0.427
2.06 2.012 2.012 1.961 1.906 1.906 1.854 1.815 1.815 1.789 1.789 1.763 1.753 1.753 1.748 1.748 1.748 1.748 1.748 1.748 1.753 1.753 1.753 1.753 1.753 1.748 1.748 1.743 1.738 1.738 1.733 1.728 1.728 1.718 1.718 1.714 1.709 1.709 1.709 1.709 1.709 1.709 1.709 1.709 1.714 1.714 1.714 1.718 1.723 1.723 1.728 1.728 1.733 1.738 1.738 1.743 1.748 1.748 1.753 1.753 1.758 1.758 1.758 1.758 1.763 1.763 1.768 1.768 1.768 1.773 1.773 1.773 1.778 1.778 1.784 1.789 1.789 1.794 1.794 1.799 1.805 1.805 1.81 1.815 1.815 1.821 1.821 1.826 1.826 1.826 1.826 1.832 1.832 1.832 1.832 1.832 1.837 1.837 1.843 1.843 1.843 1.843 1.843 1.843 1.843 1.843 1.843 1.843 1.843 1.848 1.848 1.848 1.854 1.854 1.854 1.854 1.854 1.854 1.854 1.86 1.86 1.86 1.865 1.871 1.871 1.871 1.871 1.871 1.877 1.877 1.877 1.882 1.882 1.882 1.882 1.882 1.882 1.882 1.888 1.888 1.888 1.888 1.894 1.894 1.894 1.894 1.9 1.906 1.906 1.912 1.918 1.918 1.93 1.93 1.936 1.942 1.942 1.948 1.955 1.955 1.955 1.955 1.961 1.961 1.961 1.961 1.961 1.961 1.961 1.961 1.967 1.967 1.967 1.967 1.973 1.973 1.973 1.973 1.98 1.98 1.98 1.986 1.986 1.986 1.993 1.993 1.993 1.999 1.999 1.999 2.006 2.006 2.012 2.026 2.026 2.026 2.026 2.033 2.039 2.039 2.046 2.046 2.046 2.046 2.046 2.046 2.046 2.046 2.046 2.046 2.046 2.053 2.053 2.06 2.074 2.074 2.081 2.095 2.095 2.102 2.102 2.117 2.124 2.124 2.132 2.139 2.139 2.139 2.139 2.139 2.139 2.139 2.132 2.132 2.124 2.124 2.124 2.124 2.132 2.132 2.139 2.147 2.147 2.162 2.162 2.177 2.193 2.193 2.217 2.249 2.249 2.283 2.3 2.3 2.3 2.3 2.317 2.335 2.335 2.353 2.38 2.38 2.399 2.399 2.409 2.418 2.418 2.437 2.457 2.457 2.477 2.477 2.497 2.507 2.507 2.518 2.518 2.518 2.518 2.507 2.487 2.487 2.477 2.457 2.457 2.437 2.437 2.428 2.39 2.39 2.39 2.399 0 0 0 0 0 0 0 0 0 0 0 0 0 0 0 0 0 0 0 0 0 0 0 0 0 0 0 0 0 0 0 0 0 0 0 0 0 0 0 0 0 0 0 0 0 0 0 0 0 0 0 0 0 0 0 0 0 0 0 0 0 0 0.544 0.541 0.541 0.539 0.539 0.537 0.535 0.535 0.533 0.531 0.531 0.53 0.53 0.528 0.526 0.526 0.526 0.524 0.524 0.522 0.52 0.52 0.518 0.518 0.516 0.514 0.514 0.512 0.511 0.511 0.509 0.509 0.507 0.505 0.505 0.504 0.502 0.502 0.501 0.501 0.499 0.498 0.498 0.497 0.496 0.496 0.495 0.495 0.494 0.492 0.492 0.491 0.489 0.489 0.487 0.487 0.486 0.484 0.484 0.482 0.481 0.481 0.479 0.479 0.478 0.477 0.477 0.475 0.474 0.474 0.472 0.472 0.471 0.47 0.47 0.468 0.466 0.466 0.465 0.463 0.463 0.462 0.462 0.46 0.459 0.459 0.457 0.455 0.455 0.454 0.454 0.453 0.451 0.451 0.45 0.448 0.448 0.447 0.447 0.446 0.445 0.445 0.444 0.442 0.442 0.442 0.442 0.44 0.44 0.44 0.439 0.438 0.438 0.437 0.437 0.436 0.435 0.435 0.434 0.432 0.432 0.431 0.431 0.429 0.427 0.427
2.117 2.074 2.074 2.026 1.961 1.961 1.961 1.854 1.854 1.815 1.815 1.763 1.753 1.753 1.748 1.748 1.748 1.748 1.748 1.748 1.753 1.753 1.753 1.753 1.753 1.748 1.748 1.743 1.738 1.738 1.733 1.728 1.728 1.718 1.718 1.714 1.709 1.709 1.709 1.709 1.709 1.709 1.709 1.709 1.714 1.714 1.714 1.718 1.723 1.723 1.728 1.728 1.733 1.738 1.738 1.743 1.748 1.748 1.753 1.753 1.758 1.758 1.758 1.758 1.763 1.763 1.768 1.768 1.768 1.773 1.773 1.773 1.778 1.778 1.784 1.789 1.789 1.794 1.794 1.799 1.805 1.805 1.81 1.815 1.815 1.821 1.821 1.826 1.826 1.826 1.826 1.832 1.832 1.832 1.832 1.832 1.837 1.837 1.843 1.843 1.843 1.843 1.843 1.843 1.843 1.843 1.843 1.843 1.843 1.848 1.848 1.848 1.854 1.854 1.854 1.854 1.854 1.854 1.854 1.86 1.86 1.86 1.865 1.871 1.871 1.871 1.871 1.871 1.877 1.877 1.877 1.882 1.882 1.882 1.882 1.882 1.882 1.882 1.888 1.888 1.888 1.888 1.894 1.894 1.894 1.894 1.9 1.906 1.906 1.912 1.918 1.918 1.93 1.93 1.936 1.942 1.942 1.948 1.955 1.955 1.955 1.955 1.955 1.961 1.961 1.961 1.961 1.955 1.955 1.955 1.961 1.961 1.961 1.967 1.967 1.967 1.967 1.967 1.973 1.973 1.973 1.98 1.98 1.98 1.98 1.98 1.986 1.993 1.993 1.993 1.999 1.999 2.012 2.019 2.019 2.026 2.026 2.033 2.033 2.033 2.039 2.039 2.039 2.039 2.039 2.039 2.039 2.039 2.046 2.046 2.046 2.053 2.053 2.06 2.067 2.067 2.081 2.088 2.088 2.095 2.095 2.11 2.117 2.117 2.124 2.132 2.132 2.132 2.132 2.124 2.124 2.124 2.124 2.124 2.117 2.117 2.117 2.117 2.117 2.117 2.124 2.132 2.132 2.147 2.147 2.154 2.169 2.169 2.201 2.217 2.217 2.249 2.274 2.274 2.3 2.3 2.317 2.335 2.335 2.353 2.38 2.38 2.399 2.399 2.409 2.418 2.418 2.437 2.457 2.457 2.477 2.477 2.497 2.507 2.507 2.518 2.518 2.518 2.518 2.507 2.487 2.487 2.477 2.457 2.457 2.437 2.437 2.437 2.39 2.39 2.39 0 0 0 0 0 0 0 0 0 0 0 0 0 0 0 0 0 0 0 0 0 0 0 0 0 0 0 0 0 0 0 0 0 0 0 0 0 0 0 0 0 0 0 0 0 0 0 0 0 0 0 0 0 0 0 0 0 0 0 0 0 0 0 0.544 0.541 0.541 0.539 0.539 0.537 0.535 0.535 0.533 0.531 0.531 0.529 0.529 0.527 0.526 0.526 0.525 0.523 0.523 0.521 0.52 0.52 0.518 0.518 0.516 0.514 0.514 0.512 0.51 0.51 0.509 0.509 0.506 0.505 0.505 0.504 0.502 0.502 0.501 0.501 0.499 0.498 0.498 0.497 0.496 0.496 0.495 0.495 0.494 0.492 0.492 0.491 0.489 0.489 0.487 0.487 0.486 0.484 0.484 0.482 0.481 0.481 0.479 0.479 0.478 0.477 0.477 0.475 0.474 0.474 0.472 0.472 0.471 0.47 0.47 0.468 0.466 0.466 0.465 0.463 0.463 0.462 0.462 0.46 0.458 0.458 0.457 0.455 0.455 0.454 0.454 0.453 0.451 0.451 0.45 0.448 0.448 0.447 0.447 0.446 0.445 0.445 0.443 0.442 0.442 0.441 0.441 0.44 0.44 0.44 0.439 0.438 0.438 0.437 0.437 0.436 0.435 0.435 0.433 0.432 0.432 0.431 0.431 0.429 0.427 0.427
2.169 2.124 2.124 2.081 1.961 1.961 1.961 1.854 1.854 1.815 1.815 1.794 1.778 1.778 1.773 1.768 1.768 1.768 1.773 1.773 1.784 1.789 1.789 1.789 1.789 1.784 1.784 1.778 1.768 1.768 1.758 1.743 1.743 1.733 1.733 1.723 1.714 1.714 1.714 1.714 1.714 1.714 1.714 1.714 1.714 1.718 1.718 1.723 1.728 1.728 1.728 1.728 1.733 1.738 1.738 1.738 1.748 1.748 1.748 1.748 1.753 1.758 1.758 1.758 1.758 1.758 1.763 1.768 1.768 1.773 1.773 1.773 1.778 1.778 1.784 1.789 1.789 1.794 1.794 1.799 1.805 1.805 1.81 1.815 1.815 1.821 1.821 1.821 1.821 1.821 1.826 1.826 1.826 1.826 1.826 1.832 1.837 1.837 1.837 1.837 1.837 1.843 1.843 1.843 1.843 1.843 1.843 1.843 1.843 1.843 1.843 1.848 1.848 1.848 1.848 1.854 1.854 1.854 1.854 1.86 1.86 1.86 1.865 1.871 1.871 1.871 1.871 1.871 1.877 1.877 1.877 1.882 1.882 1.882 1.882 1.882 1.882 1.882 1.888 1.888 1.888 1.888 1.888 1.888 1.894 1.894 1.9 1.906 1.906 1.912 1.918 1.918 1.93 1.93 1.936 1.942 1.942 1.948 1.955 1.955 1.955 1.955 1.955 1.961 1.961 1.961 1.961 1.955 1.955 1.955 1.961 1.961 1.961 1.967 1.967 1.967 1.967 1.967 1.973 1.973 1.973 1.98 1.98 1.98 1.98 1.98 1.986 1.993 1.993 1.993 1.999 1.999 2.012 2.019 2.019 2.026 2.026 2.033 2.033 2.033 2.039 2.039 2.039 2.039 2.039 2.039 2.039 2.039 2.046 2.046 2.046 2.053 2.053 2.06 2.067 2.067 2.081 2.088 2.088 2.095 2.095 2.102 2.11 2.11 2.117 2.117 2.117 2.124 2.124 2.117 2.117 2.117 2.117 2.117 2.11 2.11 2.102 2.102 2.11 2.11 2.117 2.124 2.124 2.132 2.132 2.147 2.162 2.162 2.177 2.201 2.201 2.225 2.249 2.249 2.266 2.266 2.283 2.3 2.3 2.317 2.344 2.344 2.362 2.362 2.38 2.39 2.39 2.409 2.428 2.428 2.457 2.457 2.477 2.497 2.497 2.497 2.497 2.497 2.497 2.487 2.487 2.487 2.467 2.447 2.447 2.428 2.428 2.428 2.39 2.39 2.39 0 0 0 0 0 0 0 0 0 0 0 0 0 0 0 0 0 0 0 0 0 0 0 0 0 0 0 0 0 0 0 0 0 0 0 0 0 0 0 0 0 0 0 0 0 0 0 0 0 0 0 0 0 0 0 0 0 0 0 0 0.546 0.545 0.545 0.543 0.541 0.541 0.539 0.539 0.537 0.535 0.535 0.533 0.531 0.531 0.529 0.529 0.527 0.526 0.526 0.524 0.522 0.522 0.521 0.519 0.519 0.518 0.518 0.516 0.514 0.514 0.512 0.51 0.51 0.509 0.509 0.506 0.505 0.505 0.504 0.502 0.502 0.501 0.501 0.499 0.498 0.498 0.497 0.496 0.496 0.495 0.495 0.493 0.492 0.492 0.49 0.489 0.489 0.487 0.487 0.486 0.484 0.484 0.482 0.481 0.481 0.479 0.479 0.478 0.477 0.477 0.475 0.474 0.474 0.472 0.472 0.471 0.47 0.47 0.468 0.466 0.466 0.465 0.463 0.463 0.462 0.462 0.46 0.458 0.458 0.457 0.455 0.455 0.454 0.454 0.453 0.451 0.451 0.449 0.448 0.448 0.447 0.447 0.446 0.444 0.444 0.443 0.442 0.442 0.441 0.441 0.44 0.44 0.44 0.439 0.437 0.437 0.437 0.437 0.436 0.435 0.435 0.433 0.432 0.432 0.431 0.431 0.429 0.427 0.427
2.169 2.124 2.124 2.081 2.019 2.019 1.967 1.906 1.906 1.86 1.86 1.826 1.805 1.805 1.794 1.794 1.799 1.799 1.805 1.805 1.815 1.826 1.826 1.832 1.832 1.832 1.832 1.821 1.805 1.805 1.789 1.768 1.768 1.753 1.753 1.733 1.723 1.723 1.714 1.714 1.718 1.718 1.718 1.718 1.718 1.718 1.718 1.723 1.728 1.728 1.728 1.728 1.733 1.738 1.738 1.738 1.748 1.748 1.748 1.748 1.753 1.758 1.758 1.758 1.758 1.758 1.763 1.768 1.768 1.773 1.773 1.773 1.778 1.778 1.784 1.789 1.789 1.794 1.794 1.799 1.805 1.805 1.81 1.815 1.815 1.815 1.815 1.821 1.821 1.821 1.826 1.826 1.826 1.826 1.826 1.826 1.832 1.832 1.837 1.837 1.837 1.837 1.837 1.837 1.837 1.837 1.843 1.843 1.843 1.843 1.843 1.843 1.843 1.843 1.848 1.854 1.854 1.854 1.854 1.86 1.86 1.86 1.865 1.871 1.871 1.871 1.871 1.871 1.877 1.877 1.877 1.882 1.882 1.882 1.882 1.882 1.882 1.882 1.888 1.888 1.888 1.888 1.888 1.888 1.894 1.894 1.9 1.906 1.906 1.912 1.918 1.918 1.924 1.924 1.93 1.942 1.942 1.948 1.948 1.948 1.955 1.955 1.955 1.955 1.955 1.955 1.955 1.955 1.955 1.955 1.955 1.955 1.955 1.961 1.961 1.961 1.961 1.961 1.961 1.967 1.967 1.973 1.973 1.973 1.973 1.973 1.98 1.986 1.986 1.993 1.999 1.999 2.006 2.012 2.012 2.019 2.019 2.026 2.026 2.026 2.033 2.039 2.039 2.039 2.039 2.039 2.039 2.039 2.039 2.046 2.046 2.046 2.046 2.053 2.067 2.067 2.074 2.081 2.081 2.095 2.095 2.102 2.11 2.11 2.117 2.117 2.117 2.124 2.124 2.117 2.117 2.117 2.117 2.117 2.11 2.11 2.102 2.102 2.11 2.11 2.117 2.124 2.124 2.132 2.132 2.147 2.162 2.162 2.177 2.201 2.201 2.225 2.249 2.249 2.266 2.266 2.283 2.3 2.3 2.317 2.344 2.344 2.362 2.362 2.38 2.39 2.38 2.38 2.409 2.409 2.428 2.428 2.447 2.467 2.467 2.477 2.477 2.477 2.477 2.467 2.457 2.457 2.447 2.428 2.428 2.428 2.428 2.428 0 0 0 0 0 0 0 0 0 0 0 0 0 0 0 0 0 0 0 0 0 0 0 0 0 0 0 0 0 0 0 0 0 0 0 0 0 0 0 0 0 0 0 0 0 0 0 0 0 0 0 0 0 0 0 0 0 0 0 0 0 0.547 0.547 0.546 0.544 0.544 0.543 0.54 0.54 0.539 0.539 0.537 0.535 0.535 0.533 0.531 0.531 0.529 0.529 0.527 0.526 0.526 0.524 0.522 0.522 0.521 0.519 0.519 0.518 0.518 0.515 0.513 0.513 0.512 0.51 0.51 0.508 0.508 0.506 0.505 0.505 0.503 0.502 0.502 0.501 0.501 0.499 0.498 0.498 0.497 0.495 0.495 0.494 0.494 0.493 0.491 0.491 0.49 0.489 0.489 0.487 0.487 0.486 0.484 0.484 0.482 0.481 0.481 0.479 0.479 0.478 0.477 0.477 0.475 0.474 0.474 0.472 0.472 0.471 0.469 0.469 0.468 0.466 0.466 0.465 0.463 0.463 0.461 0.461 0.46 0.458 0.458 0.457 0.455 0.455 0.454 0.454 0.453 0.451 0.451 0.449 0.448 0.448 0.447 0.447 0.446 0.444 0.444 0.443 0.442 0.442 0.441 0.441 0.44 0.44 0.44 0.439 0.437 0.437 0.437 0.437 0.436 0.435 0.435 0.433 0.432 0.432 0.431 0.431 0.429 0.427 0.427
2.201 2.177 2.177 2.139 2.074 2.074 2.026 1.961 1.961 1.9 1.9 1.826 1.805 1.805 1.794 1.794 1.799 1.799 1.805 1.805 1.815 1.826 1.826 1.882 1.888 1.888 1.888 1.821 1.805 1.805 1.789 1.768 1.768 1.753 1.753 1.733 1.723 1.723 1.714 1.714 1.718 1.718 1.718 1.718 1.718 1.718 1.718 1.723 1.728 1.728 1.728 1.728 1.733 1.738 1.738 1.738 1.738 1.738 1.743 1.743 1.748 1.748 1.748 1.753 1.758 1.758 1.758 1.763 1.763 1.768 1.768 1.773 1.778 1.778 1.784 1.789 1.789 1.794 1.794 1.799 1.805 1.805 1.81 1.815 1.815 1.815 1.815 1.821 1.821 1.821 1.826 1.826 1.826 1.826 1.826 1.826 1.832 1.832 1.837 1.837 1.837 1.837 1.837 1.837 1.837 1.837 1.843 1.843 1.843 1.843 1.843 1.843 1.843 1.843 1.848 1.854 1.854 1.854 1.854 1.86 1.865 1.865 1.865 1.871 1.871 1.877 1.877 1.877 1.882 1.882 1.882 1.882 1.882 1.882 1.882 1.882 1.888 1.888 1.888 1.888 1.888 1.888 1.888 1.888 1.894 1.894 1.9 1.906 1.906 1.912 1.918 1.918 1.924 1.924 1.93 1.942 1.942 1.948 1.948 1.948 1.955 1.955 1.955 1.955 1.955 1.955 1.955 1.955 1.955 1.955 1.955 1.955 1.955 1.955 1.955 1.955 1.955 1.955 1.961 1.961 1.961 1.967 1.967 1.967 1.973 1.973 1.973 1.98 1.98 1.986 1.993 1.993 1.999 2.012 2.012 2.019 2.019 2.019 2.026 2.026 2.033 2.039 2.033 2.033 2.033 2.033 2.039 2.039 2.039 2.046 2.046 2.046 2.046 2.053 2.06 2.06 2.074 2.081 2.081 2.088 2.088 2.095 2.102 2.102 2.11 2.11 2.11 2.11 2.11 2.11 2.11 2.11 2.11 2.11 2.102 2.102 2.102 2.102 2.102 2.102 2.11 2.117 2.117 2.124 2.124 2.139 2.154 2.154 2.169 2.185 2.185 2.201 2.233 2.233 2.249 2.249 2.266 2.274 2.274 2.291 2.317 2.317 2.335 2.335 2.353 2.362 2.362 2.38 2.409 2.409 2.428 2.428 2.447 2.467 2.467 2.477 2.477 2.477 2.477 2.467 2.457 2.457 2.447 2.428 2.428 2.428 0 0 0 0 0 0 0 0 0 0 0 0 0 0 0 0 0 0 0 0 0 0 0 0 0 0 0 0 0 0 0 0 0 0 0 0 0 0 0 0 0 0 0 0 0 0 0 0 0 0 0 0 0 0 0 0 0 0 0 0 0 0 0 0.547 0.547 0.546 0.544 0.544 0.543 0.54 0.54 0.539 0.539 0.536 0.535 0.535 0.532 0.53 0.53 0.528 0.528 0.526 0.525 0.525 0.523 0.522 0.522 0.52 0.518 0.518 0.517 0.517 0.515 0.513 0.513 0.511 0.51 0.51 0.508 0.508 0.506 0.505 0.505 0.503 0.502 0.502 0.501 0.501 0.499 0.498 0.498 0.497 0.495 0.495 0.494 0.494 0.493 0.491 0.491 0.49 0.489 0.489 0.487 0.487 0.486 0.484 0.484 0.482 0.481 0.481 0.479 0.479 0.478 0.477 0.477 0.475 0.474 0.474 0.472 0.472 0.471 0.469 0.469 0.467 0.466 0.466 0.465 0.465 0.463 0.461 0.461 0.46 0.458 0.458 0.457 0.455 0.455 0.454 0.454 0.453 0.451 0.451 0.449 0.448 0.448 0.447 0.447 0.446 0.444 0.444 0.443 0.442 0.442 0.441 0.441 0.44 0.439 0.439 0.438 0.437 0.437 0.436 0.436 0.436 0.435 0.435 0.433 0.432 0.432 0.431 0.431 0.429 0.427 0.427
2.233 2.217 2.217 2.177 2.074 2.074 2.026 1.961 1.961 1.9 1.9 1.86 1.837 1.837 1.826 1.826 1.837 1.837 1.843 1.843 1.86 1.871 1.871 1.882 1.888 1.888 1.888 1.877 1.854 1.854 1.832 1.805 1.805 1.778 1.778 1.753 1.733 1.733 1.723 1.718 1.718 1.718 1.718 1.718 1.718 1.723 1.723 1.723 1.728 1.728 1.728 1.728 1.733 1.733 1.733 1.738 1.738 1.738 1.743 1.743 1.743 1.748 1.748 1.748 1.753 1.753 1.758 1.758 1.758 1.768 1.768 1.768 1.773 1.773 1.778 1.784 1.784 1.794 1.794 1.799 1.805 1.805 1.805 1.81 1.81 1.815 1.815 1.815 1.821 1.821 1.821 1.821 1.821 1.821 1.821 1.826 1.832 1.832 1.832 1.837 1.837 1.837 1.837 1.837 1.837 1.837 1.837 1.843 1.843 1.843 1.843 1.843 1.843 1.843 1.848 1.848 1.848 1.854 1.854 1.86 1.865 1.865 1.865 1.871 1.871 1.877 1.877 1.877 1.882 1.882 1.882 1.882 1.882 1.882 1.882 1.882 1.888 1.888 1.888 1.888 1.888 1.888 1.888 1.888 1.894 1.894 1.9 1.906 1.906 1.912 1.918 1.918 1.924 1.924 1.93 1.942 1.942 1.948 1.948 1.948 1.955 1.955 1.955 1.955 1.955 1.955 1.955 1.955 1.955 1.955 1.955 1.955 1.955 1.955 1.955 1.955 1.955 1.955 1.961 1.961 1.961 1.967 1.967 1.967 1.973 1.973 1.973 1.98 1.98 1.986 1.993 1.993 1.999 2.012 2.012 2.019 2.019 2.019 2.026 2.026 2.033 2.039 2.033 2.033 2.033 2.033 2.039 2.039 2.039 2.046 2.046 2.046 2.046 2.053 2.06 2.06 2.074 2.081 2.081 2.088 2.088 2.095 2.102 2.102 2.11 2.11 2.11 2.11 2.11 2.11 2.11 2.11 2.11 2.11 2.102 2.102 2.102 2.102 2.102 2.102 2.11 2.117 2.117 2.124 2.124 2.139 2.154 2.154 2.169 2.177 2.177 2.193 2.217 2.217 2.233 2.233 2.241 2.258 2.258 2.274 2.291 2.291 2.309 2.309 2.326 2.335 2.335 2.353 2.38 2.38 2.399 2.399 2.418 2.437 2.437 2.437 2.447 2.447 2.447 2.437 2.437 2.437 2.428 2.418 2.418 2.418 0 0 0 0 0 0 0 0 0 0 0 0 0 0 0 0 0 0 0 0 0 0 0 0 0 0 0 0 0 0 0 0 0 0 0 0 0 0 0 0 0 0 0 0 0 0 0 0 0 0 0 0 0 0 0 0 0 0 0 0 0 0.548 0.548 0.547 0.547 0.545 0.544 0.544 0.542 0.54 0.54 0.539 0.539 0.536 0.535 0.535 0.532 0.53 0.53 0.528 0.528 0.526 0.525 0.525 0.523 0.522 0.522 0.52 0.518 0.518 0.517 0.517 0.515 0.513 0.513 0.511 0.51 0.51 0.508 0.508 0.506 0.505 0.505 0.503 0.502 0.502 0.501 0.501 0.499 0.498 0.498 0.496 0.495 0.495 0.494 0.494 0.493 0.491 0.491 0.49 0.489 0.489 0.487 0.487 0.486 0.484 0.484 0.483 0.481 0.481 0.48 0.48 0.478 0.477 0.477 0.476 0.474 0.474 0.473 0.473 0.471 0.469 0.469 0.467 0.466 0.466 0.465 0.465 0.463 0.461 0.461 0.46 0.458 0.458 0.456 0.455 0.455 0.454 0.454 0.452 0.451 0.451 0.449 0.448 0.448 0.446 0.446 0.445 0.444 0.444 0.443 0.442 0.442 0.441 0.441 0.44 0.439 0.439 0.438 0.437 0.437 0.436 0.436 0.436 0.435 0.435 0.433 0.432 0.432 0.431 0.431 0.429 0.427 0.427
2.233 2.217 2.217 2.177 2.124 2.124 2.081 2.019 2.019 1.955 1.955 1.906 1.882 1.882 1.877 1.877 1.877 1.877 1.894 1.894 1.906 1.924 1.924 1.936 1.948 1.942 1.942 1.936 1.936 1.967 1.871 1.837 1.837 1.805 1.805 1.773 1.748 1.748 1.728 1.718 1.718 1.718 1.723 1.723 1.723 1.723 1.723 1.723 1.728 1.728 1.733 1.733 1.733 1.733 1.733 1.738 1.738 1.738 1.743 1.743 1.743 1.748 1.748 1.748 1.753 1.753 1.758 1.758 1.758 1.768 1.768 1.768 1.773 1.773 1.778 1.784 1.784 1.794 1.794 1.799 1.805 1.805 1.805 1.81 1.81 1.815 1.815 1.815 1.821 1.821 1.821 1.821 1.821 1.821 1.821 1.826 1.832 1.832 1.832 1.837 1.837 1.837 1.837 1.837 1.837 1.837 1.837 1.843 1.843 1.843 1.843 1.843 1.848 1.848 1.848 1.848 1.848 1.854 1.854 1.86 1.865 1.865 1.871 1.877 1.877 1.877 1.882 1.882 1.888 1.888 1.888 1.888 1.888 1.888 1.888 1.888 1.888 1.888 1.888 1.888 1.888 1.888 1.894 1.894 1.894 1.894 1.9 1.906 1.906 1.912 1.918 1.918 1.93 1.93 1.936 1.942 1.942 1.948 1.955 1.955 1.955 1.955 1.955 1.955 1.955 1.955 1.955 1.948 1.948 1.948 1.948 1.948 1.948 1.948 1.948 1.948 1.948 1.948 1.955 1.955 1.955 1.961 1.961 1.961 1.967 1.967 1.973 1.973 1.973 1.98 1.993 1.993 1.999 2.006 2.006 2.012 2.012 2.019 2.026 2.026 2.033 2.033 2.033 2.033 2.033 2.033 2.039 2.039 2.039 2.046 2.046 2.046 2.046 2.053 2.06 2.06 2.067 2.081 2.081 2.088 2.088 2.095 2.095 2.095 2.102 2.11 2.11 2.11 2.11 2.11 2.11 2.11 2.102 2.102 2.102 2.102 2.102 2.102 2.102 2.102 2.11 2.117 2.117 2.124 2.124 2.132 2.154 2.154 2.162 2.177 2.177 2.193 2.217 2.217 2.233 2.233 2.241 2.258 2.258 2.274 2.291 2.291 2.309 2.309 2.326 2.335 2.335 2.353 2.38 2.38 2.399 2.399 2.418 2.437 2.437 2.437 2.447 2.447 2.447 2.437 2.437 2.437 2.428 2.418 2.418 2.418 0 0 0 0 0 0 0 0 0 0 0 0 0 0 0 0 0 0 0 0 0 0 0 0 0 0 0 0 0 0 0 0 0 0 0 0 0 0 0 0 0 0 0 0 0 0 0 0 0 0 0 0 0 0 0 0 0 0 0 0 0.55 0.548 0.548 0.547 0.547 0.545 0.544 0.544 0.542 0.54 0.54 0.539 0.539 0.537 0.535 0.535 0.532 0.53 0.53 0.528 0.528 0.526 0.525 0.525 0.523 0.521 0.521 0.52 0.518 0.518 0.516 0.516 0.515 0.513 0.513 0.511 0.509 0.509 0.508 0.508 0.506 0.505 0.505 0.503 0.502 0.502 0.5 0.5 0.499 0.497 0.497 0.496 0.495 0.495 0.494 0.494 0.493 0.491 0.491 0.49 0.489 0.489 0.487 0.487 0.486 0.484 0.484 0.483 0.481 0.481 0.48 0.48 0.478 0.477 0.477 0.476 0.474 0.474 0.473 0.473 0.471 0.469 0.469 0.467 0.466 0.466 0.465 0.465 0.463 0.461 0.461 0.46 0.458 0.458 0.456 0.455 0.455 0.454 0.454 0.452 0.451 0.451 0.449 0.448 0.448 0.446 0.446 0.445 0.444 0.444 0.443 0.442 0.442 0.441 0.441 0.44 0.439 0.439 0.438 0.437 0.437 0.436 0.436 0.435 0.434 0.434 0.433 0.432 0.432 0.43 0.43 0.429 0.427 0.427
2.258 2.249 2.249 2.217 2.177 2.177 2.139 2.081 2.081 2.019 2.019 1.906 1.882 1.882 1.877 1.877 1.877 1.877 1.894 1.894 1.961 1.98 1.98 1.999 2.012 2.006 2.006 1.999 1.967 1.967 1.871 1.837 1.837 1.805 1.805 1.773 1.748 1.748 1.728 1.718 1.718 1.718 1.723 1.723 1.723 1.723 1.723 1.723 1.728 1.728 1.728 1.728 1.733 1.733 1.733 1.733 1.733 1.733 1.738 1.738 1.743 1.743 1.743 1.743 1.748 1.748 1.748 1.753 1.753 1.758 1.758 1.763 1.768 1.768 1.773 1.784 1.784 1.789 1.789 1.794 1.799 1.799 1.805 1.81 1.81 1.81 1.81 1.815 1.815 1.815 1.815 1.815 1.815 1.821 1.821 1.821 1.826 1.826 1.832 1.832 1.832 1.832 1.832 1.837 1.837 1.837 1.837 1.837 1.837 1.843 1.843 1.843 1.848 1.848 1.848 1.854 1.854 1.854 1.854 1.86 1.865 1.865 1.871 1.877 1.877 1.882 1.888 1.888 1.888 1.888 1.888 1.894 1.894 1.894 1.894 1.894 1.894 1.894 1.894 1.894 1.894 1.894 1.894 1.894 1.9 1.9 1.906 1.912 1.912 1.918 1.924 1.924 1.93 1.93 1.942 1.942 1.942 1.948 1.955 1.955 1.955 1.955 1.955 1.955 1.955 1.955 1.955 1.948 1.948 1.948 1.948 1.948 1.948 1.948 1.948 1.948 1.948 1.948 1.955 1.955 1.955 1.961 1.961 1.961 1.967 1.967 1.973 1.973 1.973 1.98 1.993 1.993 1.999 2.006 2.006 2.012 2.012 2.019 2.019 2.019 2.026 2.033 2.033 2.033 2.033 2.033 2.039 2.039 2.039 2.046 2.046 2.046 2.046 2.053 2.06 2.06 2.067 2.074 2.074 2.081 2.081 2.088 2.095 2.095 2.102 2.102 2.102 2.11 2.11 2.11 2.11 2.102 2.102 2.102 2.102 2.102 2.102 2.102 2.102 2.102 2.11 2.11 2.11 2.124 2.124 2.132 2.147 2.147 2.162 2.169 2.169 2.185 2.209 2.209 2.217 2.217 2.233 2.241 2.241 2.258 2.266 2.266 2.283 2.283 2.3 2.317 2.317 2.335 2.353 2.353 2.371 2.371 2.39 2.409 2.409 2.409 2.418 2.418 2.418 2.418 2.418 2.418 2.409 2.409 2.418 2.418 0 0 0 0 0 0 0 0 0 0 0 0 0 0 0 0 0 0 0 0 0 0 0 0 0 0 0 0 0 0 0 0 0 0 0 0 0 0 0 0 0 0 0 0 0 0 0 0 0 0 0 0 0 0 0 0 0 0 0 0 0.55 0.548 0.548 0.547 0.547 0.545 0.544 0.544 0.542 0.54 0.54 0.539 0.539 0.537 0.535 0.535 0.532 0.53 0.53 0.528 0.528 0.526 0.525 0.525 0.523 0.521 0.521 0.519 0.519 0.518 0.516 0.516 0.515 0.513 0.513 0.511 0.509 0.509 0.508 0.508 0.506 0.505 0.505 0.503 0.502 0.502 0.5 0.5 0.499 0.497 0.497 0.496 0.495 0.495 0.494 0.494 0.493 0.491 0.491 0.49 0.488 0.488 0.487 0.487 0.486 0.484 0.484 0.483 0.481 0.481 0.48 0.48 0.478 0.477 0.477 0.475 0.474 0.474 0.472 0.472 0.471 0.469 0.469 0.467 0.466 0.466 0.465 0.465 0.463 0.461 0.461 0.46 0.458 0.458 0.456 0.455 0.455 0.454 0.454 0.452 0.451 0.451 0.449 0.448 0.448 0.446 0.446 0.445 0.444 0.444 0.443 0.442 0.442 0.44 0.44 0.44 0.439 0.439 0.438 0.436 0.436 0.436 0.436 0.435 0.434 0.434 0.433 0.431 0.431 0.43 0.43 0.429 0.427 0.427
2.283 2.283 2.283 2.266 2.177 2.177 2.139 2.081 2.081 2.019 2.019 2.019 2.033 2.033 1.93 1.93 1.936 1.936 1.948 1.948 1.961 1.98 1.98 1.999 2.012 2.006 2.006 1.999 1.967 1.967 1.967 1.882 1.882 1.837 1.837 1.794 1.763 1.763 1.738 1.723 1.723 1.723 1.723 1.723 1.723 1.728 1.728 1.728 1.728 1.728 1.728 1.728 1.733 1.733 1.733 1.733 1.733 1.733 1.738 1.738 1.738 1.738 1.738 1.738 1.743 1.743 1.748 1.748 1.748 1.753 1.753 1.758 1.763 1.763 1.768 1.773 1.773 1.778 1.778 1.789 1.794 1.794 1.799 1.799 1.799 1.805 1.805 1.81 1.81 1.81 1.81 1.815 1.815 1.815 1.815 1.821 1.826 1.826 1.826 1.832 1.832 1.832 1.832 1.832 1.837 1.837 1.837 1.837 1.837 1.837 1.837 1.843 1.848 1.848 1.848 1.854 1.854 1.854 1.854 1.86 1.865 1.865 1.871 1.877 1.877 1.882 1.888 1.888 1.888 1.888 1.888 1.894 1.894 1.894 1.894 1.894 1.894 1.894 1.894 1.894 1.894 1.894 1.894 1.894 1.9 1.9 1.906 1.912 1.912 1.918 1.924 1.924 1.93 1.93 1.942 1.942 1.942 1.948 1.955 1.955 1.955 1.955 1.955 1.955 1.955 1.955 1.955 1.948 1.948 1.948 1.948 1.948 1.948 1.948 1.948 1.948 1.948 1.948 1.948 1.955 1.955 1.955 1.961 1.961 1.961 1.961 1.967 1.973 1.973 1.98 1.986 1.986 1.993 2.006 2.006 2.012 2.012 2.019 2.019 2.019 2.026 2.033 2.033 2.033 2.033 2.039 2.039 2.039 2.039 2.046 2.046 2.046 2.046 2.053 2.06 2.06 2.067 2.074 2.074 2.081 2.081 2.088 2.095 2.095 2.102 2.102 2.102 2.11 2.11 2.11 2.11 2.102 2.102 2.102 2.102 2.102 2.102 2.102 2.102 2.102 2.11 2.11 2.11 2.124 2.124 2.132 2.147 2.147 2.162 2.169 2.169 2.185 2.209 2.209 2.217 2.217 2.233 2.241 2.241 2.258 2.258 2.258 2.266 2.266 2.283 2.291 2.291 2.309 2.326 2.326 2.344 2.344 2.362 2.371 2.371 2.38 2.39 2.39 2.39 2.39 2.39 2.39 2.39 2.39 0 0 0 0 0 0 0 0 0 0 0 0 0 0 0 0 0 0 0 0 0 0 0 0 0 0 0 0 0 0 0 0 0 0 0 0 0 0 0 0 0 0 0 0 0 0 0 0 0 0 0 0 0 0 0 0 0 0 0 0.552 0.551 0.551 0.549 0.548 0.548 0.547 0.547 0.545 0.543 0.543 0.542 0.54 0.54 0.539 0.539 0.537 0.535 0.535 0.532 0.531 0.531 0.528 0.528 0.526 0.525 0.525 0.523 0.521 0.521 0.519 0.519 0.518 0.516 0.516 0.515 0.513 0.513 0.511 0.509 0.509 0.508 0.508 0.506 0.505 0.505 0.503 0.501 0.501 0.5 0.5 0.499 0.497 0.497 0.496 0.495 0.495 0.493 0.493 0.492 0.491 0.491 0.489 0.488 0.488 0.487 0.487 0.486 0.484 0.484 0.483 0.481 0.481 0.48 0.48 0.478 0.477 0.477 0.475 0.474 0.474 0.472 0.472 0.471 0.469 0.469 0.467 0.466 0.466 0.464 0.464 0.463 0.461 0.461 0.46 0.458 0.458 0.456 0.455 0.455 0.453 0.453 0.452 0.45 0.45 0.449 0.448 0.448 0.447 0.447 0.445 0.444 0.444 0.443 0.442 0.442 0.44 0.44 0.44 0.439 0.439 0.438 0.436 0.436 0.436 0.436 0.435 0.434 0.434 0.433 0.431 0.431 0.43 0.43 0.429 0.427 0.427
2.283 2.283 2.283 2.266 2.241 2.241 2.209 2.162 2.162 2.11 2.11 2.06 2.033 2.033 2.033 0 0 0 0 2.117 2.046 2.046 2.046 2.074 2.088 2.081 2.081 2.074 2.039 2.039 1.98 1.98 1.986 1.986 0 1.821 1.778 1.778 1.753 1.723 1.723 1.723 1.723 1.723 1.723 1.728 1.728 1.728 1.728 1.728 1.728 1.728 1.733 1.733 1.733 1.733 1.733 1.733 1.738 1.738 1.738 1.738 1.738 1.738 1.743 1.743 1.748 1.748 1.748 1.753 1.753 1.758 1.763 1.763 1.768 1.773 1.773 1.778 1.778 1.789 1.794 1.794 1.799 1.799 1.799 1.805 1.805 1.81 1.81 1.81 1.81 1.815 1.815 1.815 1.815 1.821 1.826 1.826 1.826 1.832 1.832 1.832 1.832 1.832 1.837 1.837 1.837 1.837 1.837 1.837 1.837 1.843 1.848 1.848 1.848 1.854 1.854 1.86 1.86 1.865 1.871 1.871 1.877 1.882 1.882 1.888 1.888 1.888 1.894 1.894 1.894 1.894 1.894 1.894 1.894 1.894 1.894 1.894 1.894 1.894 1.894 1.894 1.894 1.894 1.9 1.9 1.906 1.918 1.918 1.918 1.93 1.93 1.936 1.936 1.942 1.948 1.948 1.955 1.955 1.955 1.961 1.961 1.961 1.961 1.961 1.955 1.955 1.948 1.948 1.948 1.948 1.948 1.942 1.942 1.942 1.942 1.948 1.948 1.948 1.948 1.948 1.955 1.961 1.961 1.961 1.961 1.967 1.973 1.973 1.98 1.986 1.986 1.993 1.999 1.999 2.012 2.012 2.012 2.019 2.019 2.026 2.033 2.033 2.033 2.033 2.039 2.039 2.039 2.039 2.046 2.046 2.046 2.046 2.053 2.06 2.06 2.067 2.074 2.074 2.081 2.081 2.088 2.095 2.095 2.102 2.102 2.102 2.11 2.11 2.11 2.11 2.102 2.102 2.102 2.102 2.102 2.102 2.102 2.102 2.102 2.102 2.11 2.11 2.124 2.124 2.124 2.139 2.139 2.154 2.169 2.169 2.185 2.185 2.201 2.209 2.209 2.225 2.233 2.233 2.241 2.258 2.258 2.266 2.266 2.283 2.291 2.291 2.309 2.326 2.326 2.344 2.344 2.362 2.371 2.371 2.38 2.39 2.39 2.39 2.39 2.39 2.39 2.39 2.39 0 0 0 0 0 0 0 0 0 0 0 0 0 0 0 0 0 0 0 0 0 0 0 0 0 0 0 0 0 0 0 0 0 0 0 0 0 0 0 0 0 0 0 0 0 0 0 0 0 0 0 0 0 0 0 0 0 0.554 0.554 0.552 0.551 0.551 0.549 0.548 0.548 0.547 0.547 0.545 0.543 0.543 0.542 0.54 0.54 0.539 0.539 0.537 0.535 0.535 0.532 0.531 0.531 0.528 0.528 0.526 0.525 0.525 0.523 0.521 0.521 0.519 0.519 0.518 0.516 0.516 0.514 0.512 0.512 0.511 0.509 0.509 0.508 0.508 0.506 0.505 0.505 0.503 0.501 0.501 0.5 0.5 0.499 0.497 0.497 0.496 0.495 0.495 0.493 0.493 0.492 0.491 0.491 0.489 0.488 0.488 0.487 0.487 0.486 0.484 0.484 0.482 0.481 0.481 0.479 0.479 0.478 0.476 0.476 0.475 0.474 0.474 0.472 0.472 0.471 0.469 0.469 0.467 0.466 0.466 0.464 0.464 0.462 0.461 0.461 0.459 0.458 0.458 0.456 0.456 0.455 0.453 0.453 0.452 0.45 0.45 0.449 0.448 0.448 0.447 0.447 0.445 0.444 0.444 0.443 0.442 0.442 0.44 0.44 0.44 0.438 0.438 0.437 0.436 0.436 0.435 0.435 0.435 0.433 0.433 0.432 0.431 0.431 0.43 0.43 0.428 0.427 0.427
2.3 2.3 2.309 2.3 2.283 2.283 2.258 2.233 2.233 2.185 2.185 2.147 2.117 2.117 2.117 0 0 0 0 2.117 2.117 2.132 2.132 2.147 2.162 2.154 2.154 2.147 2.117 2.117 2.053 1.986 1.986 1.986 0 1.821 1.778 1.778 1.753 1.733 1.733 1.733 1.733 1.728 1.728 1.728 1.728 1.728 1.733 1.733 1.733 1.733 1.733 1.733 1.733 1.733 1.733 1.733 1.738 1.733 1.733 1.738 1.738 1.738 1.738 1.738 1.743 1.748 1.748 1.748 1.748 1.753 1.758 1.758 1.763 1.773 1.773 1.778 1.778 1.784 1.789 1.789 1.794 1.799 1.799 1.805 1.805 1.805 1.81 1.81 1.81 1.81 1.81 1.815 1.815 1.815 1.821 1.821 1.821 1.826 1.826 1.832 1.832 1.832 1.832 1.832 1.837 1.837 1.837 1.837 1.837 1.843 1.843 1.843 1.848 1.854 1.854 1.86 1.86 1.865 1.871 1.871 1.877 1.882 1.882 1.888 1.888 1.888 1.894 1.894 1.9 1.9 1.894 1.894 1.894 1.894 1.894 1.894 1.894 1.894 1.894 1.9 1.9 1.9 1.906 1.906 1.912 1.918 1.918 1.924 1.936 1.936 1.942 1.942 1.948 1.955 1.955 1.955 1.961 1.961 1.961 1.961 1.961 1.961 1.961 1.955 1.955 1.948 1.948 1.948 1.948 1.948 1.942 1.942 1.942 1.942 1.948 1.948 1.948 1.948 1.948 1.955 1.961 1.961 1.961 1.961 1.967 1.973 1.973 1.98 1.986 1.986 1.993 1.999 1.999 2.012 2.012 2.012 2.019 2.019 2.026 2.033 2.033 2.033 2.033 2.039 2.039 2.039 2.046 2.046 2.046 2.053 2.053 2.06 2.067 2.067 2.074 2.081 2.081 2.081 2.081 2.088 2.095 2.095 2.102 2.102 2.102 2.102 2.102 2.11 2.11 2.102 2.102 2.102 2.102 2.102 2.102 2.102 2.102 2.102 2.102 2.11 2.11 2.117 2.117 2.124 2.139 2.139 2.154 2.169 2.169 2.185 2.185 2.201 2.209 2.209 2.217 2.233 2.233 2.241 2.249 2.249 2.258 2.258 2.266 2.274 2.274 2.291 2.309 2.309 2.326 2.326 2.335 2.344 2.344 2.353 2.362 2.362 2.371 2.371 2.371 2.371 2.371 2.371 0 0 0 0 0 0 0 0 0 0 0 0 0 0 0 0 0 0 0 0 0 0 0 0 0 0 0 0 0 0 0 0 0 0 0 0 0 0 0 0 0 0 0 0 0 0 0 0 0 0 0 0 0 0 0 0 0 0.554 0.554 0.552 0.551 0.551 0.549 0.548 0.548 0.547 0.547 0.544 0.543 0.543 0.542 0.54 0.54 0.539 0.539 0.537 0.534 0.534 0.532 0.531 0.531 0.528 0.528 0.526 0.525 0.525 0.523 0.521 0.521 0.519 0.519 0.518 0.516 0.516 0.514 0.512 0.512 0.511 0.51 0.51 0.508 0.508 0.506 0.505 0.505 0.503 0.502 0.502 0.5 0.5 0.499 0.497 0.497 0.496 0.494 0.494 0.493 0.493 0.491 0.49 0.49 0.489 0.487 0.487 0.486 0.486 0.485 0.484 0.484 0.482 0.481 0.481 0.479 0.479 0.478 0.476 0.476 0.475 0.474 0.474 0.472 0.472 0.471 0.469 0.469 0.467 0.466 0.466 0.464 0.464 0.462 0.461 0.461 0.459 0.458 0.458 0.456 0.456 0.455 0.453 0.453 0.452 0.45 0.45 0.449 0.448 0.448 0.447 0.447 0.445 0.444 0.444 0.443 0.441 0.441 0.44 0.44 0.439 0.438 0.438 0.437 0.436 0.436 0.435 0.435 0.434 0.433 0.433 0.432 0.431 0.431 0.431 0 0.428 0.427 0.427
2.317 2.317 2.326 2.317 2.283 2.283 2.258 2.233 2.233 2.185 2.185 2.147 2.117 2.117 2.117 2.185 2.185 2.185 2.185 2.117 2.117 2.132 2.132 2.147 2.162 2.154 2.154 2.147 2.117 2.117 2.053 1.986 1.986 1.986 0 1.86 1.805 1.805 1.768 1.743 1.743 1.738 1.738 1.733 1.733 1.733 1.733 1.733 1.733 1.733 1.733 1.733 1.733 1.733 1.733 1.733 1.733 1.733 1.738 1.733 1.733 1.738 1.738 1.738 1.738 1.738 1.743 1.748 1.748 1.748 1.748 1.753 1.758 1.758 1.763 1.773 1.773 1.778 1.778 1.778 1.784 1.784 1.789 1.794 1.794 1.799 1.799 1.805 1.805 1.805 1.805 1.81 1.81 1.81 1.81 1.815 1.815 1.815 1.821 1.826 1.826 1.826 1.826 1.832 1.832 1.832 1.837 1.837 1.837 1.837 1.837 1.843 1.843 1.843 1.848 1.854 1.854 1.86 1.86 1.865 1.871 1.871 1.877 1.882 1.882 1.888 1.888 1.894 1.894 1.894 1.9 1.9 1.894 1.894 1.894 1.894 1.894 1.894 1.894 1.894 1.894 1.9 1.9 1.9 1.906 1.906 1.912 1.918 1.918 1.924 1.936 1.936 1.942 1.942 1.948 1.955 1.955 1.955 1.961 1.961 1.961 1.961 1.961 1.961 1.961 1.955 1.955 1.948 1.948 1.948 1.948 1.948 1.942 1.942 1.942 1.942 1.948 1.948 1.948 1.948 1.948 1.955 1.961 1.961 1.961 1.961 1.967 1.973 1.973 1.98 1.986 1.986 1.993 1.999 1.999 2.006 2.006 2.012 2.019 2.019 2.026 2.033 2.033 2.033 2.033 2.039 2.039 2.039 2.046 2.046 2.046 2.053 2.053 2.06 2.067 2.067 2.074 2.088 2.088 2.088 2.088 2.095 2.095 2.095 2.102 2.102 2.102 2.102 2.102 2.11 2.11 2.102 2.102 2.102 2.102 2.102 2.102 2.102 2.102 2.102 2.102 2.11 2.11 2.117 2.117 2.124 2.139 2.139 2.154 2.169 2.169 2.185 2.185 2.201 2.209 2.209 2.217 2.233 2.233 2.241 2.249 2.249 2.258 2.258 2.266 2.274 2.274 2.291 2.309 2.309 2.326 2.326 2.335 2.344 2.344 2.353 2.362 2.344 2.344 2.344 2.344 2.353 2.353 2.371 0 0 0 0 0 0 0 0 0 0 0 0 0 0 0 0 0 0 0 0 0 0 0 0 0 0 0 0 0 0 0 0 0 0 0 0 0 0 0 0 0 0 0 0 0 0 0 0 0 0 0 0 0 0 0 0.556 0.556 0.554 0.554 0.552 0.551 0.551 0.55 0.548 0.548 0.547 0.547 0.544 0.543 0.543 0.542 0.54 0.54 0.539 0.539 0.537 0.534 0.534 0.532 0.531 0.531 0.528 0.528 0.526 0.525 0.525 0.523 0.521 0.521 0.519 0.519 0.518 0.516 0.516 0.514 0.512 0.512 0.511 0.509 0.509 0.508 0.508 0.506 0.505 0.505 0.503 0.502 0.502 0.5 0.5 0.499 0.497 0.497 0.496 0.494 0.494 0.493 0.493 0.491 0.49 0.49 0.489 0.487 0.487 0.486 0.486 0.485 0.484 0.484 0.482 0.481 0.481 0.479 0.479 0.478 0.476 0.476 0.475 0.474 0.474 0.472 0.472 0.471 0.469 0.469 0.467 0.466 0.466 0.464 0.464 0.462 0.461 0.461 0.459 0.458 0.458 0.456 0.456 0.454 0.453 0.453 0.452 0.45 0.45 0.449 0.448 0.448 0.447 0.447 0.445 0.444 0.444 0.443 0.441 0.441 0.44 0.44 0.439 0.438 0.438 0.437 0.436 0.436 0.435 0.435 0.434 0.433 0.433 0.432 0.431 0.431 0.43 0.43 0.428 0.427 0.427
2.317 2.317 2.326 2.317 2.317 2.317 2.309 2.283 2.283 2.258 2.258 2.233 2.209 2.209 2.193 2.185 2.185 2.185 2.185 2.185 2.193 2.201 2.201 2.217 2.225 2.225 2.225 2.217 2.185 2.185 2.124 2.06 2.06 2.06 0 0 1.848 1.848 1.768 1.743 1.743 1.738 1.738 1.733 1.733 1.733 1.733 1.733 1.733 1.733 1.733 1.733 1.728 1.728 1.728 1.733 1.733 1.733 1.733 1.733 1.733 1.733 1.733 1.733 1.738 1.738 1.738 1.743 1.743 1.743 1.743 1.748 1.753 1.753 1.758 1.763 1.763 1.768 1.768 1.778 1.784 1.784 1.789 1.794 1.794 1.799 1.799 1.805 1.805 1.805 1.805 1.81 1.81 1.81 1.81 1.815 1.815 1.815 1.821 1.826 1.826 1.826 1.826 1.832 1.832 1.832 1.837 1.837 1.837 1.837 1.837 1.843 1.843 1.843 1.848 1.854 1.854 1.86 1.86 1.865 1.871 1.871 1.882 1.888 1.888 1.894 1.894 1.9 1.9 1.9 1.9 1.9 1.9 1.9 1.9 1.894 1.894 1.894 1.894 1.9 1.9 1.9 1.9 1.9 1.912 1.912 1.918 1.924 1.924 1.93 1.942 1.942 1.948 1.948 1.955 1.955 1.955 1.961 1.967 1.967 1.967 1.967 1.967 1.967 1.961 1.955 1.955 1.955 1.955 1.948 1.948 1.948 1.942 1.942 1.942 1.942 1.948 1.948 1.948 1.948 1.948 1.955 1.961 1.961 1.961 1.961 1.967 1.973 1.973 1.98 1.986 1.986 1.993 1.999 1.999 2.006 2.006 2.012 2.019 2.019 2.026 2.033 2.033 2.039 2.039 2.039 2.046 2.046 2.053 2.053 2.053 2.06 2.06 2.067 2.074 2.074 2.081 2.088 2.088 2.088 2.088 2.095 2.095 2.095 2.102 2.102 2.102 2.102 2.102 2.11 2.11 2.102 2.102 2.102 2.102 2.102 2.102 2.102 2.102 2.102 2.102 2.11 2.11 2.117 2.117 2.124 2.139 2.139 2.154 2.169 2.169 2.185 2.185 2.193 2.209 2.209 2.217 2.225 2.225 2.233 2.241 2.241 2.249 2.249 2.258 2.266 2.266 2.274 2.291 2.291 2.3 2.3 2.309 2.317 2.317 2.326 2.335 2.335 2.344 2.344 2.344 2.353 2.353 0 0 0 0 0 0 0 0 0 0 0 0 0 0 0 0 0 0 0 0 0 0 0 0 0 0 0 0 0 0 0 0 0 0 0 0 0 0 0 0 0 0 0 0 0 0 0 0 0 0 0 0 0 0 0 0.558 0.556 0.556 0.554 0.554 0.553 0.551 0.551 0.55 0.548 0.548 0.547 0.547 0.545 0.543 0.543 0.542 0.54 0.54 0.539 0.539 0.537 0.534 0.534 0.532 0.531 0.531 0.528 0.528 0.526 0.525 0.525 0.523 0.521 0.521 0.519 0.519 0.518 0.516 0.516 0.514 0.512 0.512 0.511 0.509 0.509 0.508 0.508 0.506 0.505 0.505 0.504 0.502 0.502 0.501 0.501 0.499 0.497 0.497 0.496 0.494 0.494 0.493 0.493 0.491 0.49 0.49 0.489 0.487 0.487 0.486 0.486 0.485 0.483 0.483 0.482 0.48 0.48 0.479 0.479 0.478 0.476 0.476 0.475 0.474 0.474 0.472 0.472 0.471 0.469 0.469 0.467 0.466 0.466 0.464 0.464 0.462 0.461 0.461 0.459 0.458 0.458 0.456 0.456 0.454 0.453 0.453 0.452 0.45 0.45 0.449 0.448 0.448 0.447 0.447 0.445 0.444 0.444 0.443 0.441 0.441 0.44 0.44 0.439 0.438 0.438 0.437 0.436 0.436 0.435 0.435 0.434 0.433 0.433 0.432 0.431 0.431 0.43 0.43 0.428 0.427 0.427
2.335 2.335 2.335 2.335 2.344 2.344 2.344 2.335 2.335 2.317 2.317 2.291 2.283 2.283 2.274 2.266 2.266 2.258 2.258 2.258 2.258 2.258 2.258 2.266 2.274 2.274 2.274 2.266 2.241 2.241 2.185 2.117 2.117 2.117 0 0 1.848 1.848 1.799 1.763 1.763 1.748 1.748 1.738 1.733 1.733 1.733 1.733 1.738 1.733 1.733 1.733 1.728 1.728 1.728 1.733 1.733 1.733 1.733 1.733 1.733 1.733 1.733 1.733 1.733 1.733 1.733 1.738 1.738 1.743 1.743 1.743 1.748 1.748 1.753 1.758 1.758 1.768 1.768 1.773 1.784 1.784 1.789 1.794 1.794 1.799 1.799 1.799 1.805 1.805 1.805 1.805 1.805 1.81 1.81 1.81 1.81 1.81 1.815 1.821 1.821 1.826 1.826 1.826 1.832 1.832 1.832 1.837 1.837 1.837 1.837 1.843 1.843 1.843 1.848 1.854 1.854 1.86 1.86 1.865 1.871 1.871 1.882 1.888 1.888 1.894 1.894 1.9 1.9 1.9 1.9 1.9 1.9 1.9 1.9 1.894 1.894 1.894 1.894 1.9 1.9 1.9 1.9 1.9 1.912 1.912 1.918 1.924 1.924 1.93 1.942 1.942 1.948 1.948 1.961 1.961 1.961 1.961 1.967 1.967 1.967 1.967 1.967 1.967 1.961 1.955 1.955 1.955 1.955 1.955 1.948 1.948 1.942 1.942 1.942 1.942 1.948 1.948 1.948 1.948 1.948 1.955 1.961 1.961 1.967 1.967 1.967 1.973 1.973 1.98 1.986 1.986 1.993 1.999 1.999 2.006 2.006 2.012 2.026 2.026 2.033 2.039 2.039 2.039 2.039 2.046 2.053 2.053 2.06 2.06 2.06 2.067 2.067 2.074 2.081 2.081 2.088 2.088 2.088 2.095 2.095 2.102 2.102 2.102 2.11 2.11 2.11 2.11 2.11 2.11 2.11 2.11 2.11 2.11 2.11 2.11 2.102 2.102 2.102 2.102 2.102 2.11 2.11 2.117 2.117 2.132 2.139 2.139 2.154 2.169 2.169 2.185 2.185 2.193 2.209 2.209 2.217 2.225 2.225 2.233 2.233 2.233 2.241 2.241 2.249 2.258 2.258 2.258 2.266 2.266 2.283 2.283 2.291 2.3 2.3 2.309 2.317 2.317 2.317 2.317 2.326 2.335 2.335 0 0 0 0 0 0 0 0 0 0 0 0 0 0 0 0 0 0 0 0 0 0 0 0 0 0 0 0 0 0 0 0 0 0 0 0 0 0 0 0 0 0 0 0 0 0 0 0 0 0 0 0 0 0 0 0.558 0.556 0.556 0.554 0.554 0.553 0.551 0.551 0.55 0.548 0.548 0.547 0.547 0.545 0.543 0.543 0.542 0.54 0.54 0.539 0.539 0.537 0.535 0.535 0.533 0.531 0.531 0.529 0.529 0.527 0.525 0.525 0.523 0.521 0.521 0.519 0.519 0.518 0.516 0.516 0.514 0.512 0.512 0.511 0.51 0.51 0.508 0.508 0.507 0.506 0.506 0.504 0.502 0.502 0.501 0.501 0.499 0.497 0.497 0.496 0.494 0.494 0.493 0.493 0.491 0.489 0.489 0.488 0.487 0.487 0.486 0.486 0.484 0.483 0.483 0.481 0.48 0.48 0.479 0.479 0.478 0.476 0.476 0.475 0.474 0.474 0.472 0.472 0.471 0.469 0.469 0.467 0.466 0.466 0.464 0.464 0.462 0.461 0.461 0.459 0.458 0.458 0.456 0.456 0.454 0.453 0.453 0.452 0.45 0.45 0.449 0.448 0.448 0.447 0.447 0.445 0.444 0.444 0.443 0.441 0.441 0.44 0.44 0.439 0.438 0.438 0.437 0.436 0.436 0.435 0.435 0.434 0.433 0.433 0.432 0.431 0.431 0.43 0.43 0.428 0.427 0.427
2.335 2.335 2.335 2.335 2.344 2.344 2.344 2.335 2.335 2.317 2.317 2.291 2.283 2.283 2.274 2.266 2.266 2.258 2.258 2.258 2.258 2.258 2.258 2.266 2.274 2.274 2.274 2.266 2.241 2.241 2.185 2.117 2.117 2.11 2.11 2.11 1.894 1.894 1.832 1.789 1.789 1.763 1.763 1.753 1.738 1.738 1.738 1.738 1.738 1.738 1.738 1.738 1.738 1.738 1.733 1.733 1.733 1.733 1.733 1.733 1.733 1.733 1.733 1.733 1.733 1.733 1.733 1.738 1.738 1.743 1.743 1.743 1.748 1.748 1.753 1.758 1.758 1.768 1.768 1.773 1.784 1.784 1.789 1.794 1.794 1.799 1.799 1.799 1.805 1.805 1.805 1.805 1.805 1.81 1.81 1.81 1.81 1.81 1.815 1.821 1.821 1.826 1.826 1.826 1.832 1.832 1.832 1.837 1.837 1.843 1.843 1.843 1.848 1.848 1.854 1.86 1.86 1.865 1.865 1.871 1.877 1.877 1.882 1.888 1.888 1.894 1.894 1.9 1.906 1.9 1.9 1.906 1.906 1.9 1.9 1.9 1.9 1.9 1.9 1.9 1.9 1.9 1.906 1.906 1.918 1.918 1.918 1.93 1.93 1.936 1.948 1.948 1.948 1.948 1.961 1.961 1.961 1.961 1.967 1.967 1.967 1.967 1.967 1.967 1.961 1.955 1.955 1.955 1.955 1.955 1.948 1.948 1.942 1.942 1.942 1.942 1.948 1.948 1.948 1.948 1.948 1.955 1.961 1.961 1.967 1.967 1.967 1.973 1.973 1.98 1.986 1.986 1.993 1.999 1.999 2.006 2.006 2.012 2.026 2.026 2.033 2.039 2.039 2.039 2.039 2.046 2.053 2.053 2.06 2.06 2.06 2.067 2.067 2.074 2.081 2.081 2.088 2.088 2.088 2.095 2.095 2.102 2.102 2.102 2.11 2.11 2.11 2.11 2.11 2.11 2.11 2.11 2.11 2.11 2.11 2.11 2.102 2.102 2.102 2.102 2.102 2.11 2.11 2.117 2.117 2.132 2.139 2.139 2.154 2.169 2.169 2.185 2.185 2.193 2.209 2.209 2.217 2.225 2.225 2.233 2.233 2.233 2.241 2.241 2.249 2.258 2.258 2.258 2.266 2.266 2.283 2.283 2.291 2.3 2.3 2.309 2.317 2.317 2.317 2.317 2.326 2.335 2.335 0 0 0 0 0 0 0 0 0 0 0 0 0 0 0 0 0 0 0 0 0 0 0 0 0 0 0 0 0 0 0 0 0 0 0 0 0 0 0 0 0 0 0 0 0 0 0 0 0 0 0 0 0.561 0.56 0.56 0.558 0.556 0.556 0.555 0.555 0.553 0.551 0.551 0.55 0.548 0.548 0.547 0.547 0.545 0.543 0.543 0.542 0.54 0.54 0.539 0.539 0.537 0.535 0.535 0.533 0.531 0.531 0.529 0.529 0.527 0.526 0.526 0.523 0.521 0.521 0.519 0.519 0.518 0.516 0.516 0.514 0.512 0.512 0.511 0.51 0.51 0.508 0.508 0.507 0.506 0.506 0.504 0.503 0.503 0.501 0.501 0.499 0.497 0.497 0.496 0.494 0.494 0.493 0.493 0.491 0.489 0.489 0.488 0.487 0.487 0.486 0.486 0.484 0.483 0.483 0.481 0.48 0.48 0.479 0.479 0.478 0.476 0.476 0.475 0.474 0.474 0.472 0.472 0.471 0.469 0.469 0.467 0.466 0.466 0.464 0.464 0.462 0.461 0.461 0.459 0.458 0.458 0.456 0.456 0.454 0.453 0.453 0.452 0.45 0.45 0.449 0.448 0.448 0.447 0.447 0.446 0.444 0.444 0.443 0.442 0.442 0.44 0.44 0.439 0.438 0.438 0.437 0.436 0.436 0.435 0.435 0.434 0.433 0.433 0.432 0.431 0.431 0.43 0.43 0.428 0.427 0.427
2.344 2.344 2.344 2.344 2.353 2.353 2.353 2.344 2.344 2.344 2.344 2.335 2.326 2.326 2.317 2.317 2.317 2.3 2.3 2.3 2.3 2.3 2.3 2.3 2.3 2.291 2.291 2.291 2.274 2.274 2.225 2.169 2.169 2.11 2.11 2.11 1.967 1.967 1.832 1.789 1.789 1.763 1.763 1.753 1.738 1.738 1.738 1.738 1.738 1.738 1.738 1.738 1.738 1.738 1.733 1.733 1.733 1.733 1.733 1.733 1.733 1.733 1.733 1.733 1.733 1.733 1.733 1.738 1.738 1.738 1.738 1.738 1.743 1.743 1.753 1.758 1.758 1.763 1.763 1.773 1.778 1.778 1.784 1.789 1.789 1.794 1.794 1.799 1.799 1.799 1.805 1.805 1.805 1.805 1.805 1.805 1.81 1.81 1.81 1.815 1.815 1.821 1.821 1.826 1.832 1.832 1.832 1.837 1.837 1.843 1.843 1.848 1.854 1.854 1.854 1.86 1.86 1.865 1.865 1.871 1.882 1.882 1.888 1.894 1.894 1.9 1.9 1.9 1.906 1.906 1.906 1.906 1.906 1.906 1.906 1.9 1.9 1.9 1.9 1.906 1.906 1.906 1.912 1.912 1.918 1.918 1.924 1.936 1.936 1.942 1.955 1.955 1.955 1.955 1.967 1.967 1.967 1.967 1.967 1.967 1.967 1.967 1.967 1.967 1.961 1.961 1.961 1.955 1.955 1.955 1.948 1.948 1.948 1.948 1.948 1.948 1.948 1.948 1.948 1.955 1.955 1.961 1.967 1.967 1.967 1.967 1.973 1.98 1.98 1.98 1.986 1.986 1.993 1.999 1.999 2.012 2.012 2.012 2.026 2.026 2.033 2.046 2.046 2.046 2.046 2.053 2.06 2.06 2.067 2.074 2.074 2.081 2.081 2.088 2.088 2.088 2.095 2.102 2.102 2.102 2.102 2.11 2.11 2.11 2.117 2.117 2.117 2.117 2.117 2.117 2.117 2.117 2.11 2.11 2.11 2.11 2.11 2.11 2.11 2.11 2.11 2.117 2.117 2.117 2.117 2.132 2.139 2.139 2.154 2.169 2.169 2.185 2.185 2.193 2.209 2.209 2.217 2.225 2.225 2.233 2.233 2.233 2.241 2.241 2.241 2.241 2.241 2.249 2.249 2.249 2.258 2.258 2.266 2.274 2.274 2.283 2.291 2.291 2.3 2.3 2.309 2.335 2.335 0 0 0 0 0 0 0 0 0 0 0 0 0 0 0 0 0 0 0 0 0 0 0 0 0 0 0 0 0 0 0 0 0 0 0 0 0 0 0 0 0 0 0 0 0 0 0 0 0 0 0 0 0.561 0.56 0.56 0.558 0.557 0.557 0.555 0.555 0.553 0.551 0.551 0.55 0.548 0.548 0.547 0.547 0.545 0.543 0.543 0.542 0.54 0.54 0.539 0.539 0.537 0.535 0.535 0.533 0.531 0.531 0.529 0.529 0.527 0.526 0.526 0.523 0.522 0.522 0.519 0.519 0.518 0.516 0.516 0.514 0.512 0.512 0.511 0.511 0.51 0.508 0.508 0.507 0.506 0.506 0.504 0.503 0.503 0.501 0.501 0.499 0.497 0.497 0.496 0.494 0.494 0.492 0.492 0.49 0.489 0.489 0.488 0.487 0.487 0.485 0.485 0.484 0.482 0.482 0.481 0.48 0.48 0.479 0.479 0.478 0.476 0.476 0.475 0.474 0.474 0.472 0.472 0.471 0.469 0.469 0.468 0.466 0.466 0.465 0.465 0.463 0.461 0.461 0.459 0.458 0.458 0.456 0.456 0.454 0.453 0.453 0.452 0.45 0.45 0.449 0.448 0.448 0.447 0.447 0.446 0.444 0.444 0.443 0.442 0.442 0.44 0.44 0.439 0.438 0.438 0.437 0.435 0.435 0.435 0.435 0.434 0.433 0.433 0.432 0.431 0.431 0.429 0.429 0.428 0.427 0.427
2.353 2.353 2.353 2.353 2.362 2.362 2.362 2.353 2.353 2.353 2.353 2.344 2.335 2.335 2.326 2.317 2.317 2.309 2.309 2.309 2.3 2.3 2.3 2.3 2.3 2.3 2.3 2.291 2.283 2.283 2.249 2.209 2.209 2.11 2.11 2.095 1.967 1.967 1.9 1.843 1.843 1.815 1.815 1.799 1.789 1.789 1.778 1.768 1.768 1.763 1.763 1.753 1.753 1.753 1.748 1.748 1.748 1.738 1.738 1.733 1.733 1.733 1.733 1.733 1.733 1.733 1.733 1.738 1.738 1.738 1.738 1.738 1.743 1.743 1.748 1.753 1.753 1.763 1.763 1.768 1.773 1.773 1.784 1.789 1.789 1.794 1.794 1.799 1.799 1.799 1.799 1.799 1.799 1.799 1.799 1.805 1.805 1.805 1.81 1.815 1.815 1.821 1.821 1.826 1.832 1.832 1.832 1.837 1.837 1.843 1.843 1.848 1.854 1.854 1.854 1.86 1.86 1.865 1.865 1.871 1.882 1.882 1.888 1.894 1.894 1.9 1.9 1.9 1.906 1.906 1.906 1.906 1.906 1.906 1.906 1.9 1.9 1.9 1.9 1.906 1.906 1.906 1.912 1.912 1.918 1.918 1.924 1.936 1.936 1.942 1.955 1.955 1.955 1.955 1.967 1.967 1.967 1.967 1.967 1.967 1.967 1.967 1.967 1.967 1.961 1.961 1.961 1.955 1.955 1.955 1.948 1.948 1.948 1.948 1.948 1.948 1.948 1.948 1.948 1.955 1.955 1.961 1.967 1.967 1.967 1.967 1.973 1.98 1.98 1.98 1.986 1.986 1.993 1.999 1.999 2.012 2.012 2.019 2.033 2.033 2.039 2.053 2.053 2.053 2.053 2.067 2.067 2.067 2.081 2.088 2.088 2.095 2.095 2.102 2.102 2.102 2.11 2.11 2.11 2.117 2.117 2.117 2.117 2.117 2.124 2.124 2.124 2.124 2.124 2.124 2.124 2.124 2.117 2.117 2.117 2.117 2.117 2.11 2.11 2.11 2.117 2.117 2.117 2.124 2.124 2.132 2.147 2.147 2.154 2.169 2.169 2.185 2.185 2.201 2.209 2.209 2.217 2.225 2.225 2.233 2.233 2.233 2.241 2.241 2.241 2.241 2.241 2.241 2.241 2.241 2.249 2.249 2.258 2.266 2.266 2.266 2.274 2.274 2.283 2.283 2.291 0 0 0 0 0 0 0 0 0 0 0 0 0 0 0 0 0 0 0 0 0 0 0 0 0 0 0 0 0 0 0 0 0 0 0 0 0 0 0 0 0 0 0 0 0 0 0 0 0 0 0 0 0.562 0.562 0.561 0.56 0.56 0.558 0.557 0.557 0.555 0.555 0.553 0.551 0.551 0.55 0.548 0.548 0.547 0.547 0.545 0.543 0.543 0.542 0.54 0.54 0.539 0.539 0.538 0.536 0.536 0.534 0.532 0.532 0.53 0.53 0.528 0.526 0.526 0.524 0.522 0.522 0.519 0.519 0.518 0.516 0.516 0.514 0.512 0.512 0.511 0.511 0.51 0.508 0.508 0.507 0.506 0.506 0.504 0.503 0.503 0.501 0.501 0.499 0.497 0.497 0.496 0.494 0.494 0.492 0.492 0.49 0.489 0.489 0.488 0.486 0.486 0.485 0.485 0.484 0.482 0.482 0.481 0.48 0.48 0.479 0.479 0.478 0.476 0.476 0.475 0.474 0.474 0.472 0.472 0.471 0.47 0.47 0.468 0.466 0.466 0.465 0.465 0.463 0.461 0.461 0.459 0.458 0.458 0.456 0.456 0.454 0.453 0.453 0.452 0.45 0.45 0.449 0.449 0.448 0.447 0.447 0.446 0.445 0.445 0.443 0.442 0.442 0.441 0.441 0.44 0.439 0.439 0.437 0.435 0.435 0.435 0.435 0.434 0.433 0.433 0.432 0.431 0.431 0.429 0.429 0.428 0.427 0.427
2.353 2.353 2.353 2.353 2.362 2.362 2.362 2.353 2.353 2.353 2.353 2.344 2.335 2.335 2.326 2.317 2.317 2.309 2.309 2.309 2.3 2.3 2.3 2.3 2.3 2.3 2.3 2.291 2.283 2.283 2.249 2.209 2.209 2.154 2.154 2.095 2.095 2.095 2.095 1.98 1.98 1.877 1.877 1.865 1.854 1.854 1.837 1.821 1.821 1.805 1.805 1.789 1.778 1.778 1.773 1.763 1.763 1.748 1.748 1.738 1.733 1.733 1.733 1.733 1.733 1.733 1.733 1.738 1.738 1.738 1.738 1.738 1.743 1.743 1.748 1.753 1.753 1.763 1.763 1.768 1.773 1.773 1.784 1.789 1.789 1.794 1.794 1.799 1.799 1.799 1.799 1.799 1.799 1.799 1.799 1.805 1.805 1.805 1.81 1.815 1.815 1.821 1.821 1.826 1.832 1.832 1.837 1.843 1.843 1.843 1.843 1.848 1.854 1.854 1.86 1.865 1.865 1.871 1.871 1.877 1.882 1.882 1.888 1.894 1.894 1.9 1.9 1.906 1.906 1.906 1.906 1.906 1.906 1.906 1.906 1.906 1.906 1.906 1.906 1.906 1.906 1.912 1.918 1.918 1.924 1.924 1.936 1.942 1.942 1.948 1.961 1.961 1.961 1.961 1.967 1.973 1.973 1.973 1.973 1.973 1.973 1.973 1.973 1.973 1.967 1.967 1.967 1.961 1.961 1.955 1.948 1.948 1.948 1.948 1.948 1.948 1.955 1.955 1.955 1.961 1.961 1.961 1.967 1.967 1.973 1.973 1.973 1.98 1.98 1.986 1.986 1.986 1.993 1.993 1.999 2.012 2.012 2.019 2.033 2.033 2.039 2.053 2.053 2.053 2.053 2.067 2.067 2.067 2.081 2.088 2.088 2.095 2.095 2.102 2.102 2.102 2.11 2.11 2.11 2.117 2.117 2.117 2.117 2.117 2.124 2.124 2.124 2.124 2.124 2.124 2.124 2.124 2.117 2.117 2.117 2.117 2.117 2.11 2.11 2.11 2.117 2.117 2.117 2.124 2.124 2.132 2.147 2.147 2.154 2.169 2.169 2.185 2.185 2.201 2.209 2.209 2.217 2.225 2.225 2.233 2.241 2.241 2.241 2.241 2.241 2.241 2.241 2.241 2.241 2.241 2.249 2.249 2.258 2.266 2.266 2.266 2.274 2.274 2.283 2.283 2.291 0 0 0 0 0 0 0 0 0 0 0 0 0 0 0 0 0 0 0 0 0 0 0 0 0 0 0 0 0 0 0 0 0 0 0 0 0 0 0 0 0 0 0 0 0 0 0 0 0 0 0 0 0.562 0.562 0.561 0.56 0.56 0.558 0.557 0.557 0.555 0.555 0.553 0.551 0.551 0.55 0.549 0.549 0.547 0.547 0.545 0.543 0.543 0.542 0.54 0.54 0.539 0.539 0.538 0.536 0.536 0.534 0.532 0.532 0.53 0.53 0.528 0.526 0.526 0.524 0.522 0.522 0.519 0.519 0.518 0.516 0.516 0.514 0.512 0.512 0.511 0.511 0.51 0.509 0.509 0.507 0.506 0.506 0.505 0.503 0.503 0.501 0.501 0.499 0.498 0.498 0.496 0.494 0.494 0.492 0.492 0.49 0.489 0.489 0.488 0.486 0.486 0.485 0.485 0.484 0.482 0.482 0.481 0.48 0.48 0.478 0.478 0.478 0.476 0.476 0.475 0.474 0.474 0.472 0.472 0.471 0.47 0.47 0.468 0.466 0.466 0.465 0.465 0.463 0.462 0.462 0.46 0.458 0.458 0.456 0.456 0.455 0.453 0.453 0.452 0.45 0.45 0.449 0.449 0.448 0.447 0.447 0.446 0.445 0.445 0.444 0.442 0.442 0.441 0.441 0.44 0.439 0.439 0.437 0.435 0.435 0.435 0.435 0.434 0.433 0.433 0.431 0.43 0.43 0.429 0.429 0.428 0.427 0.427
2.362 2.362 2.371 2.371 2.362 2.362 2.362 2.362 2.362 2.353 2.353 2.344 2.335 2.335 2.326 2.326 2.326 2.317 2.317 2.309 2.309 2.309 2.309 2.3 2.3 2.3 2.3 2.3 2.3 2.3 2.274 2.241 2.241 2.193 2.193 2.139 2.095 2.095 2.095 1.98 1.98 1.877 1.877 1.865 1.854 1.854 1.837 1.821 1.821 1.805 1.805 1.789 1.778 1.778 1.773 1.763 1.763 1.748 1.748 1.738 1.733 1.733 1.733 1.733 1.733 1.733 1.733 1.738 1.738 1.738 1.738 1.738 1.743 1.743 1.743 1.753 1.753 1.758 1.758 1.768 1.773 1.773 1.778 1.789 1.789 1.789 1.789 1.794 1.794 1.794 1.794 1.794 1.794 1.799 1.799 1.799 1.799 1.799 1.805 1.81 1.81 1.821 1.821 1.826 1.832 1.832 1.837 1.843 1.843 1.843 1.843 1.848 1.854 1.854 1.86 1.865 1.865 1.871 1.871 1.877 1.882 1.882 1.894 1.9 1.9 1.906 1.906 1.906 1.906 1.906 1.906 1.906 1.906 1.906 1.906 1.906 1.906 1.906 1.906 1.912 1.912 1.918 1.924 1.924 1.93 1.93 1.942 1.955 1.955 1.961 1.967 1.967 1.973 1.973 1.973 1.98 1.98 1.98 1.98 1.98 1.98 1.98 1.973 1.973 1.973 1.967 1.967 1.961 1.961 1.955 1.955 1.955 1.948 1.948 1.955 1.955 1.955 1.955 1.955 1.961 1.961 1.967 1.973 1.973 1.973 1.973 1.973 1.98 1.98 1.986 1.993 1.993 1.993 1.993 2.006 2.012 2.012 2.026 2.039 2.039 2.046 2.06 2.06 2.067 2.067 2.081 2.088 2.088 2.095 2.102 2.102 2.11 2.11 2.117 2.117 2.117 2.124 2.132 2.132 2.132 2.132 2.132 2.132 2.132 2.139 2.139 2.139 2.139 2.139 2.132 2.132 2.132 2.132 2.132 2.124 2.124 2.124 2.117 2.117 2.117 2.124 2.124 2.124 2.124 2.124 2.139 2.147 2.147 2.154 2.169 2.169 2.185 2.185 2.201 2.209 2.209 2.225 2.225 2.225 2.233 2.241 2.241 2.241 2.241 2.241 2.241 2.241 2.241 2.241 2.241 2.241 2.241 2.249 2.258 2.258 2.266 2.266 2.266 2.274 2.274 2.283 0 0 0 0 0 0 0 0 0 0 0 0 0 0 0 0 0 0 0 0 0 0 0 0 0 0 0 0 0 0 0 0 0 0 0 0 0 0 0 0 0 0 0 0 0 0 0 0 0 0 0 0 0.563 0.563 0.561 0.56 0.56 0.558 0.557 0.557 0.555 0.555 0.553 0.551 0.551 0.55 0.548 0.548 0.546 0.546 0.545 0.543 0.543 0.542 0.54 0.54 0.539 0.539 0.538 0.536 0.536 0.534 0.532 0.532 0.53 0.53 0.528 0.526 0.526 0.524 0.522 0.522 0.52 0.52 0.518 0.516 0.516 0.515 0.513 0.513 0.512 0.512 0.51 0.509 0.509 0.507 0.506 0.506 0.505 0.503 0.503 0.501 0.501 0.499 0.498 0.498 0.496 0.494 0.494 0.492 0.492 0.49 0.489 0.489 0.488 0.486 0.486 0.485 0.485 0.483 0.482 0.482 0.481 0.479 0.479 0.478 0.478 0.478 0.476 0.476 0.475 0.474 0.474 0.472 0.472 0.471 0.47 0.47 0.468 0.467 0.467 0.465 0.465 0.463 0.462 0.462 0.46 0.458 0.458 0.456 0.456 0.455 0.453 0.453 0.452 0.45 0.45 0.449 0.449 0.448 0.447 0.447 0.446 0.445 0.445 0.444 0.442 0.442 0.441 0.441 0.44 0.439 0.439 0.437 0.436 0.436 0.435 0.435 0.434 0.433 0.433 0.431 0.43 0.43 0.429 0.429 0.428 0.427 0.427
2.38 2.371 2.371 2.371 2.371 2.371 2.371 2.362 2.362 2.362 2.362 2.353 2.344 2.344 2.335 2.326 2.326 2.326 2.326 2.317 2.317 2.317 2.317 2.317 2.317 2.309 2.309 2.309 2.309 2.317 2.291 2.274 2.274 2.193 2.193 2.139 2.095 2.095 2.095 1.98 1.98 1.948 1.948 1.936 1.936 1.999 1.973 1.877 1.877 1.877 0 1.843 1.826 1.826 1.815 1.794 1.794 1.773 1.773 1.753 1.753 1.753 1.753 1.748 1.748 1.743 1.743 1.743 1.738 1.738 1.738 1.738 1.743 1.743 1.743 1.753 1.753 1.758 1.758 1.768 1.773 1.773 1.778 1.784 1.784 1.789 1.789 1.789 1.789 1.789 1.789 1.789 1.789 1.794 1.794 1.794 1.799 1.799 1.799 1.81 1.81 1.815 1.815 1.821 1.832 1.832 1.837 1.843 1.843 1.848 1.848 1.854 1.86 1.86 1.865 1.871 1.871 1.877 1.877 1.882 1.888 1.888 1.894 1.9 1.9 1.906 1.906 1.906 1.906 1.906 1.906 1.906 1.906 1.906 1.906 1.906 1.906 1.906 1.906 1.912 1.912 1.918 1.924 1.924 1.93 1.93 1.942 1.955 1.955 1.961 1.967 1.967 1.973 1.973 1.973 1.98 1.98 1.98 1.98 1.98 1.98 1.98 1.973 1.973 1.973 1.967 1.967 1.961 1.961 1.955 1.955 1.955 1.948 1.948 1.955 1.955 1.955 1.955 1.955 1.961 1.961 1.967 1.973 1.973 1.973 1.973 1.973 1.98 1.98 1.986 1.993 1.993 1.993 1.993 2.006 2.012 2.012 2.026 2.039 2.039 2.046 2.06 2.06 2.067 2.067 2.095 2.11 2.11 2.117 2.124 2.124 2.132 2.132 2.139 2.139 2.139 2.147 2.147 2.147 2.147 2.147 2.147 2.147 2.147 2.147 2.147 2.147 2.147 2.147 2.147 2.147 2.139 2.139 2.139 2.132 2.132 2.132 2.124 2.124 2.124 2.132 2.132 2.132 2.132 2.132 2.139 2.154 2.154 2.162 2.177 2.177 2.193 2.193 2.201 2.217 2.217 2.225 2.225 2.225 2.233 2.241 2.241 2.241 2.241 2.241 2.241 2.241 2.241 2.241 2.241 2.241 2.241 2.249 2.258 2.258 2.266 2.266 2.266 2.274 2.274 2.283 0 0 0 0 0 0 0 0 0 0 0 0 0 0 0 0 0 0 0 0 0 0 0 0 0 0 0 0 0 0 0 0 0 0 0 0 0 0 0 0 0 0 0 0 0 0 0 0 0 0.566 0.564 0.564 0.562 0.562 0.561 0.56 0.56 0.558 0.557 0.557 0.555 0.555 0.553 0.551 0.551 0.55 0.548 0.548 0.546 0.546 0.545 0.543 0.543 0.542 0.541 0.541 0.54 0.54 0.539 0.537 0.537 0.535 0.533 0.533 0.531 0.531 0.529 0.526 0.526 0.524 0.522 0.522 0.52 0.52 0.518 0.516 0.516 0.515 0.513 0.513 0.512 0.512 0.51 0.509 0.509 0.507 0.506 0.506 0.505 0.503 0.503 0.501 0.501 0.499 0.498 0.498 0.496 0.494 0.494 0.492 0.492 0.49 0.489 0.489 0.488 0.486 0.486 0.485 0.485 0.483 0.482 0.482 0.481 0.479 0.479 0.478 0.478 0.478 0.476 0.476 0.475 0.474 0.474 0.472 0.472 0.471 0.47 0.47 0.468 0.467 0.467 0.465 0.465 0.463 0.462 0.462 0.46 0.458 0.458 0.456 0.456 0.455 0.453 0.453 0.452 0.45 0.45 0.449 0.449 0.448 0.448 0.448 0.447 0.445 0.445 0.444 0.443 0.443 0.442 0.442 0.44 0.439 0.439 0.437 0.436 0.436 0.435 0.435 0.434 0.433 0.433 0.431 0.43 0.43 0.429 0.429 0.428 0.426 0.426
2.38 2.371 2.371 2.371 2.371 2.371 2.371 2.362 2.362 2.362 2.362 2.353 2.344 2.344 2.335 2.326 2.326 2.326 2.326 2.317 2.317 2.317 2.317 2.317 2.317 2.309 2.309 2.309 2.309 2.317 2.291 2.274 2.274 2.241 2.241 2.193 2.147 2.147 2.147 2.147 2.147 2.117 2.117 2.11 1.999 1.999 1.973 1.973 2.026 2.026 0 1.894 1.877 1.877 1.854 1.832 1.832 1.773 1.773 1.753 1.753 1.753 1.753 1.748 1.748 1.743 1.743 1.743 1.738 1.738 1.738 1.738 1.743 1.743 1.743 1.753 1.753 1.758 1.758 1.768 1.773 1.773 1.778 1.784 1.784 1.789 1.789 1.789 1.789 1.789 1.789 1.789 1.789 1.794 1.794 1.794 1.799 1.799 1.799 1.81 1.81 1.815 1.815 1.821 1.832 1.832 1.837 1.843 1.843 1.848 1.848 1.86 1.86 1.86 1.865 1.871 1.871 1.877 1.877 1.888 1.894 1.894 1.894 1.9 1.9 1.906 1.906 1.912 1.912 1.912 1.906 1.906 1.906 1.906 1.912 1.906 1.906 1.906 1.912 1.912 1.912 1.924 1.93 1.93 1.942 1.942 1.948 1.961 1.961 1.967 1.973 1.973 1.98 1.98 1.98 1.98 1.98 1.986 1.986 1.986 1.986 1.98 1.98 1.98 1.973 1.967 1.967 1.961 1.961 1.961 1.955 1.955 1.955 1.955 1.955 1.955 1.955 1.955 1.961 1.967 1.967 1.967 1.973 1.973 1.973 1.973 1.98 1.98 1.98 1.986 1.993 1.993 1.999 1.999 2.012 2.019 2.019 2.039 2.046 2.046 2.067 2.081 2.081 2.088 2.088 2.095 2.11 2.11 2.117 2.124 2.124 2.132 2.132 2.139 2.139 2.139 2.147 2.147 2.147 2.147 2.147 2.147 2.147 2.147 2.147 2.147 2.147 2.147 2.147 2.147 2.147 2.139 2.139 2.139 2.132 2.132 2.132 2.124 2.124 2.124 2.132 2.132 2.132 2.132 2.132 2.139 2.154 2.154 2.162 2.177 2.177 2.193 2.193 2.201 2.217 2.217 2.225 2.225 2.225 2.233 2.241 2.241 2.241 2.241 2.241 2.241 2.241 2.241 2.241 2.241 2.241 2.241 2.249 2.258 2.258 2.258 2.266 2.266 2.266 2.266 2.274 0 0 0 0 0 0 0 0 0 0 0 0 0 0 0 0 0 0 0 0 0 0 0 0 0 0 0 0 0 0 0 0 0 0 0 0 0 0 0 0 0 0 0 0 0 0 0 0.568 0.568 0.566 0.564 0.564 0.562 0.562 0.562 0.56 0.56 0.559 0.557 0.557 0.555 0.555 0.553 0.551 0.551 0.55 0.548 0.548 0.546 0.546 0.545 0.543 0.543 0.542 0.541 0.541 0.54 0.54 0.539 0.537 0.537 0.535 0.533 0.533 0.531 0.531 0.529 0.526 0.526 0.524 0.522 0.522 0.52 0.52 0.518 0.516 0.516 0.515 0.513 0.513 0.512 0.512 0.51 0.509 0.509 0.508 0.506 0.506 0.505 0.503 0.503 0.501 0.501 0.499 0.498 0.498 0.496 0.494 0.494 0.492 0.492 0.49 0.489 0.489 0.488 0.486 0.486 0.485 0.485 0.483 0.482 0.482 0.481 0.479 0.479 0.478 0.478 0.477 0.476 0.476 0.475 0.474 0.474 0.472 0.472 0.471 0.47 0.47 0.468 0.467 0.467 0.465 0.465 0.463 0.462 0.462 0.46 0.458 0.458 0.457 0.457 0.455 0.453 0.453 0.452 0.45 0.45 0.45 0.45 0.449 0.448 0.448 0.447 0.445 0.445 0.444 0.443 0.443 0.442 0.442 0.44 0.439 0.439 0.437 0.436 0.436 0.435 0.435 0.433 0.433 0.433 0.431 0.431 0.431 0.429 0.429 0.428 0.426 0.426
2.38 2.38 2.38 2.38 2.38 2.38 2.38 2.38 2.38 2.371 2.371 2.362 2.353 2.353 2.344 2.344 2.344 2.335 2.335 2.335 2.335 2.335 2.326 2.326 2.326 2.326 2.326 2.326 2.326 2.326 2.317 2.309 2.309 2.283 2.283 2.258 2.217 2.217 2.185 2.147 2.147 2.117 2.117 2.11 1.999 1.999 1.973 1.973 2.026 1.993 1.993 1.894 1.877 1.877 1.854 1.832 1.832 1.799 1.799 1.773 1.773 1.773 1.773 1.768 1.768 1.758 1.753 1.753 1.743 1.743 1.743 1.743 1.748 1.748 1.753 1.758 1.758 1.758 1.758 1.768 1.773 1.773 1.778 1.784 1.784 1.789 1.789 1.789 1.789 1.789 1.789 1.789 1.789 1.789 1.789 1.794 1.794 1.794 1.799 1.805 1.805 1.81 1.81 1.821 1.826 1.826 1.837 1.843 1.843 1.848 1.848 1.86 1.86 1.86 1.865 1.871 1.871 1.877 1.877 1.888 1.894 1.894 1.894 1.9 1.9 1.906 1.906 1.912 1.912 1.912 1.906 1.906 1.906 1.906 1.912 1.906 1.906 1.906 1.912 1.912 1.912 1.924 1.93 1.93 1.955 1.955 1.961 1.967 1.967 1.98 1.986 1.986 1.986 1.986 1.986 1.986 1.986 1.986 1.986 1.986 1.986 1.986 1.98 1.98 1.973 1.973 1.973 1.967 1.967 1.961 1.961 1.961 1.955 1.955 1.961 1.961 1.961 1.961 1.961 1.967 1.967 1.973 1.973 1.973 1.98 1.98 1.98 1.98 1.98 1.986 1.993 1.993 2.006 2.006 2.012 2.033 2.033 2.046 2.06 2.06 2.074 2.088 2.088 2.095 2.095 2.11 2.124 2.124 2.132 2.139 2.139 2.147 2.147 2.154 2.162 2.162 2.162 2.162 2.162 2.162 2.162 2.162 2.162 2.162 2.162 2.162 2.154 2.154 2.154 2.154 2.154 2.154 2.147 2.147 2.147 2.147 2.139 2.139 2.139 2.139 2.139 2.139 2.139 2.139 2.139 2.147 2.154 2.154 2.169 2.177 2.177 2.193 2.193 2.209 2.217 2.217 2.225 2.233 2.233 2.241 2.241 2.241 2.241 2.241 2.241 2.241 2.241 2.241 2.241 2.241 2.241 2.241 2.241 2.249 2.249 2.258 2.266 2.266 2.266 2.266 2.274 0 0 0 0 0 0 0 0 0 0 0 0 0 0 0 0 0 0 0 0 0 0 0 0 0 0 0 0 0 0 0 0 0 0 0 0 0 0 0 0 0 0 0 0 0 0 0 0.568 0.568 0.566 0.564 0.564 0.563 0.563 0.562 0.561 0.561 0.559 0.557 0.557 0.555 0.555 0.553 0.551 0.551 0.549 0.548 0.548 0.546 0.546 0.545 0.543 0.543 0.542 0.541 0.541 0.54 0.54 0.539 0.537 0.537 0.535 0.533 0.533 0.531 0.531 0.529 0.527 0.527 0.524 0.522 0.522 0.52 0.52 0.518 0.516 0.516 0.515 0.513 0.513 0.512 0.512 0.51 0.509 0.509 0.508 0.506 0.506 0.505 0.503 0.503 0.501 0.501 0.499 0.498 0.498 0.496 0.494 0.494 0.492 0.492 0.49 0.489 0.489 0.488 0.486 0.486 0.485 0.485 0.483 0.482 0.482 0.481 0.479 0.479 0.478 0.478 0.477 0.476 0.476 0.475 0.474 0.474 0.472 0.472 0.471 0.47 0.47 0.468 0.467 0.467 0.465 0.465 0.464 0.462 0.462 0.46 0.458 0.458 0.457 0.457 0.455 0.453 0.453 0.452 0.45 0.45 0.45 0.45 0.449 0.448 0.448 0.447 0.446 0.446 0.444 0.443 0.443 0.442 0.442 0.44 0.439 0.439 0.437 0.436 0.436 0.435 0.435 0.433 0.433 0.433 0.431 0.431 0.431 0.429 0.429 0.428 0.427 0.427
2.38 2.38 2.38 2.38 2.38 2.39 2.39 2.38 2.38 2.371 2.371 2.362 2.353 2.353 2.344 2.344 2.344 2.335 2.335 2.335 2.335 2.335 2.326 2.326 2.326 2.326 2.326 2.326 2.326 2.326 2.317 2.309 2.309 2.283 2.283 2.258 2.217 2.217 2.185 2.147 2.147 2.117 2.117 2.11 2.11 2.193 2.06 2.026 2.026 1.993 1.993 1.961 1.961 0 1.906 1.877 1.877 1.843 1.843 1.815 1.81 1.81 1.81 1.799 1.799 1.794 1.784 1.784 1.773 1.773 1.768 1.768 1.768 1.763 1.763 1.768 1.768 1.773 1.773 1.773 1.778 1.778 1.784 1.784 1.784 1.789 1.789 1.789 1.789 1.789 1.789 1.789 1.789 1.789 1.789 1.794 1.794 1.794 1.799 1.805 1.805 1.81 1.81 1.815 1.821 1.821 1.832 1.843 1.843 1.854 1.854 1.86 1.865 1.865 1.871 1.877 1.877 1.882 1.882 1.888 1.9 1.9 1.9 1.906 1.906 1.912 1.912 1.912 1.912 1.912 1.906 1.906 1.906 1.912 1.912 1.912 1.912 1.912 1.918 1.924 1.924 1.93 1.948 1.948 1.955 1.955 1.961 1.967 1.967 1.98 1.986 1.986 1.986 1.986 1.986 1.986 1.986 1.986 1.986 1.986 1.986 1.986 1.98 1.98 1.973 1.973 1.973 1.967 1.967 1.961 1.961 1.961 1.955 1.955 1.961 1.961 1.961 1.961 1.961 1.967 1.967 1.973 1.973 1.973 1.98 1.98 1.98 1.98 1.98 1.986 1.993 1.993 2.006 2.006 2.012 2.033 2.033 2.046 2.06 2.06 2.074 2.088 2.088 2.095 2.095 2.11 2.124 2.124 2.132 2.139 2.139 2.147 2.147 2.154 2.177 2.177 2.177 2.177 2.177 2.177 2.177 2.169 2.169 2.169 2.162 2.162 2.162 2.162 2.162 2.162 2.162 2.154 2.154 2.154 2.154 2.154 2.147 2.147 2.147 2.147 2.147 2.147 2.147 2.147 2.147 2.154 2.169 2.169 2.177 2.193 2.193 2.209 2.209 2.225 2.233 2.233 2.241 2.249 2.249 2.249 2.249 2.249 2.249 2.241 2.241 2.241 2.241 2.241 2.241 2.241 2.241 2.241 2.241 2.249 2.249 2.258 2.266 2.266 2.266 2.266 2.274 0 0 0 0 0 0 0 0 0 0 0 0 0 0 0 0 0 0 0 0 0 0 0 0 0 0 0 0 0 0 0 0 0 0 0 0 0 0 0 0 0 0 0 0 0 0 0 0.568 0.568 0.566 0.564 0.564 0.563 0.563 0.562 0.561 0.561 0.559 0.557 0.557 0.555 0.555 0.553 0.551 0.551 0.549 0.548 0.548 0.546 0.546 0.545 0.543 0.543 0.542 0.541 0.541 0.54 0.54 0.539 0.538 0.538 0.535 0.533 0.533 0.531 0.531 0.529 0.527 0.527 0.525 0.522 0.522 0.52 0.52 0.518 0.516 0.516 0.515 0.513 0.513 0.512 0.512 0.51 0.509 0.509 0.508 0.506 0.506 0.505 0.505 0.503 0.501 0.501 0.499 0.498 0.498 0.496 0.494 0.494 0.492 0.492 0.49 0.489 0.489 0.488 0.486 0.486 0.485 0.485 0.484 0.482 0.482 0.481 0.479 0.479 0.478 0.478 0.477 0.476 0.476 0.475 0.473 0.473 0.472 0.472 0.471 0.47 0.47 0.468 0.467 0.467 0.465 0.465 0.464 0.462 0.462 0.46 0.459 0.459 0.457 0.457 0.455 0.453 0.453 0.452 0.45 0.45 0.45 0.45 0.449 0.448 0.448 0.447 0.446 0.446 0.445 0.445 0.444 0.442 0.442 0.441 0.439 0.439 0.438 0.436 0.436 0.435 0.435 0.433 0.433 0.433 0.431 0.431 0.431 0.429 0.429 0.428 0.427 0.427
