2.081 2.067 2.067 2.053 2.039 2.039 2.033 2.033 2.019 2.019 2.019 2.012 1.999 1.999 1.993 1.993 1.993 1.986 1.986 1.986 1.98 1.98 1.98 1.98 1.98 1.973 1.973 1.961 1.948 1.948 1.93 1.918 1.918 1.9 1.9 1.894 1.888 1.888 1.888 1.888 1.906 1.906 1.942 1.942 1.993 2.053 2.053 2.11 2.154 2.154 2.185 2.185 2.209 2.217 2.217 2.233 2.233 2.233 2.233 2.225 2.217 2.217 2.201 2.185 2.185 2.139 2.117 2.095 2.053 2.053 2.006 1.973 1.973 1.942 1.918 1.918 1.888 1.888 1.888 1.882 1.882 1.882 1.888 1.888 1.882 1.882 1.882 1.871 1.871 1.865 1.86 1.86 1.854 1.854 1.848 1.843 1.843 1.843 1.837 1.837 1.837 1.837 1.837 1.837 1.843 1.843 1.843 1.848 1.848 1.848 1.848 1.848 1.848 1.843 1.837 1.837 1.832 1.821 1.821 1.821 1.821 1.821 1.821 1.826 1.826 1.843 1.865 1.865 1.912 1.912 1.98 2.06 2.06 2.132 2.193 2.193 2.225 2.225 2.249 2.258 2.258 2.241 2.241 2.209 2.209 2.185 2.154 2.154 2.132 2.11 2.11 2.102 2.102 2.095 2.095 2.102 2.102 2.102 2.11 2.11 2.11 2.117 2.117 2.117 2.117 2.124 2.124 2.117 2.11 2.11 2.11 2.11 2.102 2.088 2.088 2.074 2.067 2.067 2.053 2.053 2.039 2.033 2.033 2.019 2.012 2.012 2.012 2.012 2.006 2.006 2.006 2.006 2.006 2.012 2.012 2.019 2.019 2.033 2.074 2.074 2.117 2.162 2.162 2.217 2.274 2.274 2.326 2.326 2.39 2.428 2.428 2.457 2.467 2.467 2.467 2.467 2.477 2.487 2.487 2.497 2.497 2.497 2.507 2.507 2.507 2.507 2.507 2.507 2.507 2.507 2.507 2.497 2.497 2.497 2.487 2.467 2.467 2.467 2.467 2.467 2.467 2.467 2.467 2.467 2.467 2.467 2.467 2.467 2.467 2.467 2.467 2.477 2.487 2.487 2.497 2.507 2.507 2.518 2.518 2.539 2.549 2.549 2.56 2.571 2.571 2.571 2.571 2.571 2.571 2.571 2.56 2.56 2.539 2.539 2.518 2.497 2.497 2.467 2.447 2.447 2.418 2.418 2.344 2.291 2.291 2.233 2.193 2.193 2.154 2.154 2.132 2.11 2.11 2.088 2.067 2.067 2.053 2.053 0 0 0 0 0 0 0 0 0 0 0 0 0 0 0 0 0 0 0 0 0 0 0 0 0 0 0 0 0 0 0 0 0 0 0 0 0 0 0 0 0 0 0 0 0 0 0 0 0 0 0 0 0 0 0 0 0 0 0 0 0 0 0 0 0 0 0 0 0 0 0 0 0 0 0 0 0 0 0 0 0 0 0 0 0 0 0 0 0 0 0 0 0 0 0 0 0 0 0 0 0 0 0 0 0 0 0 0 0 0 0 0 0 0 0 0 0 0 0 0 0 0 0 0 0 0 0 0 0 0 0 0 0 0 0 0 0 0 0 0 0 0 0 0 0 0 0 0 0 0 0 0 0 0 0 0 0 0 0 0 0 0 0 0 0 0 0 0.737 0.736 0.736 0.733 0.733 0.731 0.727 0.727 0.726 0.723 0.723 0.721 0.721 0.718 0.716
2.081 2.067 2.067 2.053 2.039 2.039 2.033 2.033 2.019 2.019 2.019 2.012 1.999 1.999 1.993 1.993 1.993 1.986 1.986 1.98 1.973 1.973 1.973 1.973 1.973 1.967 1.967 1.955 1.948 1.948 1.93 1.918 1.918 1.9 1.9 1.894 1.888 1.888 1.888 1.888 1.906 1.906 1.942 1.942 1.993 2.053 2.053 2.11 2.162 2.162 2.185 2.185 2.209 2.225 2.225 2.233 2.233 2.233 2.233 2.233 2.233 2.233 2.225 2.209 2.209 2.162 2.117 2.117 2.053 2.053 2.006 1.973 1.973 1.942 1.918 1.918 1.888 1.888 1.888 1.882 1.882 1.882 1.888 1.888 1.882 1.882 1.882 1.871 1.871 1.865 1.86 1.86 1.854 1.854 1.848 1.843 1.843 1.843 1.837 1.837 1.837 1.837 1.837 1.837 1.843 1.843 1.843 1.848 1.848 1.848 1.848 1.848 1.848 1.843 1.837 1.837 1.832 1.821 1.821 1.821 1.821 1.821 1.821 1.826 1.826 1.843 1.865 1.865 1.912 1.912 1.98 2.088 2.088 2.154 2.217 2.217 2.249 2.249 2.274 2.291 2.291 2.274 2.274 2.241 2.241 2.225 2.193 2.193 2.177 2.154 2.154 2.147 2.147 2.147 2.147 2.147 2.147 2.147 2.154 2.154 2.162 2.162 2.162 2.162 2.162 2.162 2.162 2.162 2.147 2.147 2.139 2.139 2.132 2.117 2.117 2.102 2.088 2.088 2.067 2.067 2.053 2.046 2.046 2.033 2.026 2.026 2.019 2.019 2.012 2.012 2.012 2.012 2.012 2.019 2.019 2.026 2.026 2.053 2.088 2.088 2.139 2.193 2.193 2.241 2.3 2.3 2.362 2.362 2.418 2.457 2.457 2.467 2.477 2.477 2.477 2.477 2.477 2.487 2.487 2.497 2.497 2.497 2.507 2.507 2.507 2.507 2.507 2.507 2.507 2.507 2.507 2.497 2.497 2.497 2.487 2.467 2.467 2.467 2.467 2.467 2.467 2.467 2.467 2.467 2.467 2.467 2.467 2.467 2.467 2.467 2.467 2.477 2.487 2.487 2.497 2.507 2.507 2.518 2.518 2.539 2.549 2.549 2.56 2.571 2.571 2.571 2.571 2.571 2.571 2.571 2.56 2.56 2.539 2.539 2.518 2.497 2.497 2.467 2.447 2.447 2.418 2.418 2.371 2.326 2.326 2.274 2.241 2.241 2.209 2.209 2.185 2.162 2.162 2.147 2.124 2.124 2.11 2.11 0 0 0 0 0 0 0 0 0 0 0 0 0 0 0 0 0 0 0 0 0 0 0 0 0 0 0 0 0 0 0 0 0 0 0 0 0 0 0 0 0 0 0 0 0 0 0 0 0 0 0 0 0 0 0 0 0 0 0 0 0 0 0 0 0 0 0 0 0 0 0 0 0 0 0 0 0 0 0 0 0 0 0 0 0 0 0 0 0 0 0 0 0 0 0 0 0 0 0 0 0 0 0 0 0 0 0 0 0 0 0 0 0 0 0 0 0 0 0 0 0 0 0 0 0 0 0 0 0 0 0 0 0 0 0 0 0 0 0 0 0 0 0 0 0 0 0 0 0 0 0 0 0 0 0 0 0 0 0 0 0 0 0 0 0 0.738 0.738 0.737 0.735 0.735 0.733 0.733 0.731 0.729 0.729 0.727 0.724 0.724 0.721 0.721 0.719 0.716
2.088 2.074 2.074 2.06 2.046 2.046 2.033 2.033 2.026 2.019 2.019 2.012 2.006 2.006 1.993 1.993 1.986 1.98 1.98 1.973 1.973 1.973 1.973 1.973 1.973 1.967 1.967 1.955 1.948 1.948 1.936 1.924 1.924 1.912 1.912 1.9 1.9 1.9 1.894 1.894 1.918 1.918 1.955 1.955 1.999 2.053 2.053 2.11 2.162 2.162 2.185 2.185 2.209 2.225 2.225 2.233 2.233 2.233 2.233 2.233 2.233 2.233 2.225 2.209 2.209 2.162 2.117 2.117 2.074 2.074 2.026 1.993 1.993 1.961 1.924 1.924 1.9 1.9 1.894 1.888 1.888 1.888 1.888 1.888 1.888 1.888 1.882 1.877 1.877 1.871 1.865 1.865 1.86 1.86 1.854 1.848 1.848 1.843 1.843 1.843 1.843 1.843 1.843 1.843 1.848 1.848 1.848 1.848 1.848 1.848 1.848 1.848 1.848 1.843 1.843 1.843 1.832 1.832 1.832 1.826 1.826 1.826 1.832 1.843 1.843 1.865 1.888 1.888 1.942 1.942 2.012 2.088 2.088 2.154 2.217 2.217 2.249 2.249 2.274 2.291 2.291 2.274 2.274 2.241 2.241 2.225 2.193 2.193 2.177 2.154 2.154 2.147 2.147 2.147 2.147 2.147 2.147 2.147 2.154 2.154 2.162 2.162 2.162 2.162 2.162 2.162 2.162 2.162 2.147 2.147 2.139 2.139 2.132 2.117 2.117 2.102 2.088 2.088 2.067 2.067 2.053 2.046 2.046 2.033 2.026 2.026 2.019 2.019 2.012 2.012 2.012 2.012 2.012 2.019 2.019 2.026 2.026 2.053 2.088 2.088 2.139 2.193 2.193 2.266 2.326 2.326 2.371 2.371 2.428 2.457 2.457 2.477 2.487 2.487 2.487 2.487 2.487 2.487 2.487 2.497 2.507 2.507 2.507 2.507 2.507 2.507 2.507 2.507 2.507 2.507 2.507 2.507 2.497 2.497 2.487 2.477 2.477 2.477 2.477 2.477 2.467 2.467 2.467 2.467 2.467 2.467 2.467 2.467 2.467 2.477 2.477 2.487 2.497 2.497 2.507 2.507 2.507 2.518 2.518 2.539 2.549 2.549 2.549 2.56 2.56 2.571 2.571 2.571 2.571 2.571 2.56 2.56 2.549 2.549 2.528 2.507 2.507 2.477 2.457 2.457 2.428 2.428 2.399 2.353 2.353 2.317 2.283 2.283 2.258 2.258 2.233 2.217 2.217 2.201 2.124 2.124 2.11 2.11 0 0 0 0 0 0 0 0 0 0 0 0 0 0 0 0 0 0 0 0 0 0 0 0 0 0 0 0 0 0 0 0 0 0 0 0 0 0 0 0 0 0 0 0 0 0 0 0 0 0 0 0 0 0 0 0 0 0 0 0 0 0 0 0 0 0 0 0 0 0 0 0 0 0 0 0 0 0 0 0 0 0 0 0 0 0 0 0 0 0 0 0 0 0 0 0 0 0 0 0 0 0 0 0 0 0 0 0 0 0 0 0 0 0 0 0 0 0 0 0 0 0 0 0 0 0 0 0 0 0 0 0 0 0 0 0 0 0 0 0 0 0 0 0 0 0 0 0 0 0 0 0 0 0 0 0 0 0 0 0 0 0 0 0 0 0.738 0.738 0.737 0.735 0.735 0.734 0.734 0.732 0.73 0.73 0.727 0.725 0.725 0.723 0.723 0.719 0.716
2.095 2.081 2.081 2.067 2.053 2.053 2.039 2.039 2.033 2.026 2.026 2.012 2.006 2.006 1.993 1.993 1.986 1.98 1.98 1.973 1.973 1.973 1.973 1.973 1.973 1.967 1.967 1.955 1.948 1.948 1.936 1.924 1.924 1.912 1.912 1.9 1.9 1.9 1.894 1.894 1.924 1.924 1.967 1.967 2.006 2.06 2.06 2.11 2.162 2.162 2.193 2.193 2.209 2.233 2.233 2.241 2.241 2.241 2.241 2.241 2.241 2.241 2.241 2.225 2.225 2.185 2.139 2.139 2.095 2.095 2.046 2.006 2.006 1.973 1.936 1.936 1.906 1.906 1.9 1.894 1.894 1.894 1.894 1.894 1.894 1.894 1.888 1.882 1.882 1.877 1.865 1.865 1.86 1.86 1.854 1.848 1.848 1.843 1.843 1.843 1.843 1.843 1.843 1.843 1.848 1.848 1.848 1.848 1.848 1.848 1.848 1.848 1.848 1.843 1.843 1.843 1.832 1.832 1.832 1.826 1.826 1.826 1.832 1.843 1.843 1.882 1.912 1.912 1.973 1.973 2.039 2.117 2.117 2.185 2.233 2.233 2.266 2.266 2.291 2.317 2.317 2.3 2.3 2.274 2.274 2.258 2.241 2.241 2.225 2.209 2.209 2.201 2.201 2.201 2.201 2.201 2.201 2.201 2.209 2.209 2.209 2.217 2.217 2.217 2.217 2.209 2.209 2.201 2.185 2.185 2.177 2.177 2.169 2.154 2.154 2.132 2.117 2.117 2.095 2.095 2.074 2.067 2.067 2.053 2.039 2.039 2.033 2.033 2.026 2.019 2.019 2.019 2.019 2.026 2.026 2.039 2.039 2.067 2.11 2.11 2.162 2.209 2.209 2.266 2.326 2.326 2.371 2.371 2.428 2.457 2.457 2.477 2.487 2.487 2.487 2.487 2.487 2.487 2.487 2.497 2.507 2.507 2.507 2.507 2.507 2.507 2.507 2.507 2.507 2.507 2.507 2.497 2.497 2.497 2.477 2.477 2.477 2.477 2.477 2.467 2.467 2.467 2.467 2.467 2.467 2.467 2.467 2.467 2.467 2.477 2.477 2.487 2.497 2.497 2.497 2.507 2.507 2.518 2.518 2.528 2.539 2.539 2.549 2.56 2.56 2.571 2.571 2.571 2.571 2.571 2.56 2.56 2.549 2.549 2.528 2.507 2.507 2.477 2.457 2.457 2.428 2.428 2.399 2.353 2.353 2.317 2.283 2.283 2.258 2.258 2.233 2.217 2.217 2.201 2.177 2.177 2.162 2.162 0 0 0 0 0 0 0 0 0 0 0 0 0 0 0 0 0 0 0 0 0 0 0 0 0 0 0 0 0 0 0 0 0 0 0 0 0 0 0 0 0 0 0 0 0 0 0 0 0 0 0 0 0 0 0 0 0 0 0 0 0 0 0 0 0 0 0 0 0 0 0 0 0 0 0 0 0 0 0 0 0 0 0 0 0 0 0 0 0 0 0 0 0 0 0 0 0 0 0 0 0 0 0 0 0 0 0 0 0 0 0 0 0 0 0 0 0 0 0 0 0 0 0 0 0 0 0 0 0 0 0 0 0 0 0 0 0 0 0 0 0 0 0 0 0 0 0 0 0 0 0 0 0 0 0 0 0 0 0 0 0 0 0.741 0.741 0.74 0.738 0.738 0.737 0.735 0.735 0.734 0.734 0.732 0.73 0.73 0.727 0.725 0.725 0.723 0.723 0.72 0.717
2.095 2.081 2.081 2.067 2.053 2.053 2.039 2.039 2.033 2.026 2.026 2.012 2.006 2.006 1.993 1.993 1.986 1.98 1.98 1.973 1.973 1.973 1.973 1.973 1.973 1.967 1.967 1.955 1.948 1.948 1.936 1.924 1.924 1.912 1.912 1.912 1.906 1.906 1.9 1.9 1.924 1.924 1.967 1.967 2.006 2.06 2.06 2.11 2.162 2.162 2.193 2.193 2.217 2.233 2.233 2.241 2.249 2.249 2.249 2.249 2.258 2.258 2.249 2.249 2.249 2.201 2.139 2.139 2.095 2.095 2.046 2.006 2.006 1.973 1.936 1.936 1.906 1.906 1.9 1.894 1.894 1.894 1.894 1.894 1.894 1.894 1.888 1.882 1.882 1.877 1.871 1.871 1.86 1.86 1.86 1.854 1.854 1.848 1.848 1.848 1.848 1.848 1.848 1.848 1.854 1.854 1.854 1.854 1.854 1.854 1.854 1.848 1.848 1.848 1.848 1.848 1.843 1.837 1.837 1.837 1.837 1.837 1.843 1.86 1.86 1.882 1.912 1.912 1.973 1.973 2.039 2.139 2.139 2.201 2.249 2.249 2.283 2.283 2.309 2.335 2.335 2.335 2.335 2.317 2.317 2.3 2.283 2.283 2.274 2.266 2.266 2.258 2.258 2.258 2.258 2.258 2.258 2.266 2.266 2.266 2.274 2.274 2.266 2.266 2.266 2.258 2.258 2.249 2.233 2.233 2.217 2.217 2.201 2.185 2.185 2.162 2.147 2.147 2.117 2.117 2.102 2.088 2.088 2.067 2.039 2.039 2.033 2.033 2.026 2.019 2.019 2.019 2.019 2.026 2.026 2.053 2.053 2.081 2.124 2.124 2.177 2.225 2.225 2.283 2.344 2.344 2.399 2.399 2.447 2.477 2.477 2.487 2.487 2.487 2.487 2.487 2.487 2.487 2.487 2.497 2.497 2.497 2.497 2.497 2.497 2.497 2.497 2.497 2.497 2.497 2.497 2.487 2.477 2.477 2.477 2.467 2.467 2.467 2.467 2.467 2.467 2.467 2.467 2.467 2.467 2.467 2.467 2.467 2.467 2.477 2.477 2.487 2.497 2.497 2.497 2.507 2.507 2.518 2.518 2.528 2.539 2.539 2.549 2.56 2.56 2.571 2.571 2.571 2.571 2.571 2.56 2.56 2.549 2.549 2.528 2.507 2.507 2.477 2.457 2.457 2.428 2.428 2.409 2.371 2.371 2.335 2.317 2.317 2.291 2.291 2.274 2.266 2.266 2.258 2.258 0 0 0 0 0 0 0 0 0 0 0 0 0 0 0 0 0 0 0 0 0 0 0 0 0 0 0 0 0 0 0 0 0 0 0 0 0 0 0 0 0 0 0 0 0 0 0 0 0 0 0 0 0 0 0 0 0 0 0 0 0 0 0 0 0 0 0 0 0 0 0 0 0 0 0 0 0 0 0 0 0 0 0 0 0 0 0 0 0 0 0 0 0 0 0 0 0 0 0 0 0 0 0 0 0 0 0 0 0 0 0 0 0 0 0 0 0 0 0 0 0 0 0 0 0 0 0 0 0 0 0 0 0 0 0 0 0 0 0 0 0 0 0 0 0 0 0 0 0 0 0 0 0 0 0 0 0 0 0 0 0 0 0 0 0 0.741 0.741 0.74 0.74 0.74 0.738 0.737 0.737 0.734 0.734 0.733 0.73 0.73 0.728 0.727 0.727 0.723 0.723 0.721 0.718
2.102 2.088 2.088 2.067 2.053 2.053 2.046 2.046 2.033 2.026 2.026 2.012 2.006 2.006 1.993 1.993 1.986 1.986 1.986 1.98 1.973 1.973 1.973 1.973 1.973 1.967 1.967 1.961 1.955 1.955 1.942 1.93 1.93 1.918 1.918 1.918 1.912 1.912 1.912 1.912 1.936 1.936 1.973 1.973 2.012 2.067 2.067 2.117 2.169 2.169 2.193 2.193 2.217 2.233 2.233 2.241 2.249 2.249 2.249 2.249 2.258 2.258 2.249 2.249 2.249 2.201 2.154 2.154 2.11 2.11 2.067 2.019 2.019 1.986 1.948 1.948 1.918 1.918 1.9 1.9 1.9 1.9 1.9 1.9 1.894 1.894 1.894 1.888 1.888 1.877 1.871 1.871 1.865 1.865 1.86 1.854 1.854 1.854 1.854 1.854 1.854 1.854 1.854 1.854 1.854 1.854 1.854 1.86 1.86 1.86 1.854 1.854 1.854 1.848 1.848 1.854 1.848 1.848 1.848 1.848 1.848 1.848 1.865 1.882 1.882 1.912 1.942 1.942 2.006 2.006 2.074 2.139 2.139 2.201 2.249 2.249 2.283 2.283 2.309 2.335 2.335 2.335 2.335 2.317 2.317 2.3 2.283 2.283 2.274 2.266 2.266 2.258 2.258 2.258 2.258 2.258 2.258 2.266 2.266 2.266 2.274 2.274 2.266 2.266 2.266 2.258 2.258 2.249 2.233 2.233 2.217 2.217 2.201 2.185 2.185 2.162 2.147 2.147 2.117 2.117 2.102 2.088 2.088 2.067 2.053 2.053 2.039 2.039 2.033 2.033 2.033 2.033 2.033 2.039 2.039 2.053 2.053 2.081 2.124 2.124 2.177 2.225 2.225 2.283 2.3 2.362 2.418 2.418 2.457 2.477 2.477 2.487 2.487 2.487 2.497 2.497 2.497 2.497 2.497 2.497 2.497 2.497 2.497 2.497 2.497 2.497 2.497 2.497 2.497 2.497 2.497 2.487 2.477 2.477 2.477 2.467 2.467 2.467 2.467 2.467 2.467 2.467 2.467 2.467 2.467 2.467 2.467 2.467 2.477 2.477 2.477 2.487 2.497 2.497 2.507 2.507 2.507 2.518 2.518 2.528 2.539 2.539 2.549 2.56 2.56 2.571 2.571 2.571 2.571 2.571 2.56 2.56 2.549 2.549 2.539 2.507 2.507 2.487 2.467 2.467 2.437 2.437 2.418 2.39 2.39 2.362 2.344 2.344 2.326 2.326 2.309 2.3 2.3 2.291 2.291 0 0 0 0 0 0 0 0 0 0 0 0 0 0 0 0 0 0 0 0 0 0 0 0 0 0 0 0 0 0 0 0 0 0 0 0 0 0 0 0 0 0 0 0 0 0 0 0 0 0 0 0 0 0 0 0 0 0 0 0 0 0 0 0 0 0 0 0 0 0 0 0 0 0 0 0 0 0 0 0 0 0 0 0 0 0 0 0 0 0 0 0 0 0 0 0 0 0 0 0 0 0 0 0 0 0 0 0 0 0 0 0 0 0 0 0 0 0 0 0 0 0 0 0 0 0 0 0 0 0 0 0 0 0 0 0 0 0 0 0 0 0 0 0 0 0 0 0 0 0 0 0 0 0 0 0 0 0 0 0 0 0 0 0 0 0.742 0.742 0.741 0.74 0.74 0.739 0.737 0.737 0.735 0.735 0.733 0.73 0.73 0.728 0.726 0.726 0.723 0.723 0.721 0.718
2.102 2.088 2.088 2.074 2.06 2.06 2.046 2.046 2.039 2.033 2.033 2.019 2.006 2.006 1.993 1.993 1.986 1.986 1.986 1.98 1.973 1.973 1.973 1.973 1.973 1.967 1.967 1.961 1.955 1.955 1.942 1.93 1.93 1.918 1.918 1.918 1.912 1.912 1.912 1.912 1.936 1.936 1.973 1.973 2.033 2.081 2.081 2.124 2.177 2.177 2.201 2.201 2.225 2.241 2.241 2.249 2.249 2.249 2.258 2.258 2.258 2.266 2.266 2.266 2.266 2.217 2.177 2.177 2.132 2.132 2.081 2.039 2.039 2.006 1.948 1.948 1.918 1.918 1.9 1.9 1.9 1.9 1.9 1.9 1.894 1.894 1.894 1.888 1.888 1.877 1.871 1.871 1.865 1.865 1.86 1.854 1.854 1.854 1.854 1.854 1.854 1.854 1.854 1.854 1.854 1.854 1.854 1.86 1.86 1.86 1.854 1.854 1.854 1.848 1.848 1.854 1.848 1.848 1.848 1.848 1.848 1.848 1.865 1.882 1.882 1.912 1.973 1.973 2.039 2.039 2.102 2.162 2.162 2.225 2.266 2.266 2.3 2.3 2.344 2.362 2.362 2.362 2.362 2.353 2.353 2.344 2.335 2.335 2.326 2.317 2.317 2.317 2.317 2.317 2.317 2.317 2.317 2.326 2.326 2.326 2.335 2.335 2.326 2.326 2.317 2.309 2.309 2.3 2.283 2.283 2.266 2.266 2.241 2.225 2.225 2.193 2.177 2.177 2.147 2.147 2.124 2.11 2.11 2.088 2.074 2.074 2.06 2.06 2.046 2.039 2.039 2.039 2.039 2.046 2.046 2.067 2.067 2.095 2.139 2.139 2.193 2.241 2.241 2.3 2.3 2.362 2.418 2.418 2.457 2.477 2.477 2.487 2.487 2.487 2.497 2.487 2.487 2.487 2.487 2.497 2.497 2.497 2.497 2.487 2.487 2.487 2.487 2.487 2.487 2.477 2.477 2.477 2.467 2.467 2.457 2.457 2.457 2.457 2.457 2.457 2.457 2.457 2.457 2.457 2.467 2.467 2.467 2.467 2.477 2.477 2.477 2.487 2.497 2.497 2.497 2.497 2.497 2.507 2.507 2.528 2.528 2.528 2.539 2.56 2.56 2.56 2.56 2.571 2.571 2.571 2.56 2.56 2.549 2.549 2.539 2.507 2.507 2.487 2.467 2.467 2.437 2.437 2.418 2.39 2.39 2.362 2.344 2.344 2.326 2.326 2.309 2.3 2.3 2.291 2.291 0 0 0 0 0 0 0 0 0 0 0 0 0 0 0 0 0 0 0 0 0 0 0 0 0 0 0 0 0 0 0 0 0 0 0 0 0 0 0 0 0 0 0 0 0 0 0 0 0 0 0 0 0 0 0 0 0 0 0 0 0 0 0 0 0 0 0 0 0 0 0 0 0 0 0 0 0 0 0 0 0 0 0 0 0 0 0 0 0 0 0 0 0 0 0 0 0 0 0 0 0 0 0 0 0 0 0 0 0 0 0 0 0 0 0 0 0 0 0 0 0 0 0 0 0 0 0 0 0 0 0 0 0 0 0 0 0 0 0 0 0 0 0 0 0 0 0 0 0 0 0 0 0 0 0 0 0 0 0 0 0 0 0 0.742 0.742 0.742 0.742 0.741 0.74 0.74 0.739 0.737 0.737 0.735 0.735 0.733 0.731 0.731 0.729 0.726 0.726 0.724 0.724 0.721 0.718
2.102 2.088 2.088 2.074 2.06 2.06 2.046 2.046 2.039 2.033 2.033 2.019 2.006 2.006 1.999 1.999 1.993 1.986 1.986 1.98 1.973 1.973 1.973 1.973 1.973 1.973 1.973 1.967 1.955 1.955 1.948 1.936 1.936 1.924 1.924 1.924 1.918 1.918 1.918 1.924 1.948 1.948 1.986 1.986 2.033 2.081 2.081 2.124 2.177 2.177 2.201 2.201 2.225 2.241 2.241 2.249 2.249 2.249 2.266 2.266 2.266 2.274 2.274 2.274 2.274 2.217 2.177 2.177 2.132 2.132 2.081 2.039 2.039 2.006 1.961 1.961 1.93 1.93 1.912 1.906 1.906 1.906 1.906 1.906 1.9 1.9 1.894 1.888 1.888 1.882 1.877 1.877 1.871 1.871 1.865 1.86 1.86 1.86 1.854 1.854 1.854 1.86 1.86 1.86 1.86 1.86 1.86 1.86 1.86 1.86 1.86 1.854 1.854 1.854 1.854 1.854 1.854 1.86 1.86 1.86 1.865 1.865 1.882 1.906 1.906 1.936 1.973 1.973 2.039 2.039 2.102 2.162 2.162 2.241 2.283 2.283 2.317 2.317 2.353 2.38 2.38 2.39 2.39 2.38 2.38 2.371 2.371 2.371 2.362 2.362 2.362 2.362 2.371 2.371 2.371 2.38 2.38 2.39 2.39 2.39 2.39 2.39 2.38 2.38 2.38 2.362 2.362 2.353 2.326 2.326 2.309 2.309 2.291 2.266 2.266 2.233 2.217 2.217 2.185 2.185 2.124 2.11 2.11 2.088 2.074 2.074 2.06 2.06 2.046 2.039 2.039 2.039 2.039 2.046 2.046 2.067 2.067 2.095 2.162 2.162 2.209 2.258 2.258 2.317 2.317 2.38 2.428 2.428 2.467 2.487 2.487 2.487 2.497 2.487 2.487 2.487 2.487 2.487 2.487 2.487 2.487 2.487 2.487 2.487 2.477 2.477 2.477 2.477 2.477 2.477 2.477 2.467 2.447 2.447 2.447 2.447 2.447 2.447 2.447 2.447 2.447 2.457 2.457 2.457 2.457 2.457 2.477 2.477 2.477 2.477 2.477 2.477 2.487 2.487 2.487 2.497 2.497 2.497 2.497 2.507 2.528 2.528 2.539 2.549 2.549 2.56 2.56 2.56 2.571 2.571 2.571 2.571 2.56 2.56 2.549 2.518 2.518 2.497 2.477 2.477 2.447 2.447 2.428 2.409 2.409 2.38 2.371 2.371 2.353 2.353 2.344 2.335 2.335 2.335 2.335 0 0 0 0 0 0 0 0 0 0 0 0 0 0 0 0 0 0 0 0 0 0 0 0 0 0 0 0 0 0 0 0 0 0 0 0 0 0 0 0 0 0 0 0 0 0 0 0 0 0 0 0 0 0 0 0 0 0 0 0 0 0 0 0 0 0 0 0 0 0 0 0 0 0 0 0 0 0 0 0 0 0 0 0 0 0 0 0 0 0 0 0 0 0 0 0 0 0 0 0 0 0 0 0 0 0 0 0 0 0 0 0 0 0 0 0 0 0 0 0 0 0 0 0 0 0 0 0 0 0 0 0 0 0 0 0 0 0 0 0 0 0 0 0 0 0 0 0 0 0 0 0 0 0 0 0 0 0 0 0 0 0 0 0.742 0.742 0.742 0.742 0.741 0.74 0.74 0.739 0.738 0.738 0.736 0.736 0.734 0.732 0.732 0.73 0.727 0.727 0.725 0.725 0.722 0.718
2.117 2.095 2.095 2.081 2.067 2.067 2.053 2.053 2.039 2.033 2.033 2.019 2.012 2.012 1.999 1.999 1.993 1.986 1.986 1.986 1.98 1.98 1.98 1.98 1.98 1.98 1.98 1.973 1.967 1.967 1.955 1.942 1.942 1.936 1.936 1.93 1.924 1.924 1.924 1.93 1.955 1.955 1.993 1.993 2.039 2.088 2.088 2.132 2.177 2.177 2.209 2.209 2.233 2.249 2.249 2.258 2.258 2.258 2.266 2.266 2.266 2.274 2.274 2.274 2.274 2.233 2.193 2.193 2.147 2.147 2.102 2.06 2.06 2.019 1.98 1.98 1.942 1.942 1.924 1.918 1.918 1.912 1.912 1.912 1.906 1.906 1.9 1.894 1.894 1.888 1.882 1.882 1.877 1.877 1.871 1.865 1.865 1.865 1.86 1.86 1.86 1.86 1.86 1.865 1.865 1.865 1.865 1.865 1.865 1.865 1.865 1.86 1.86 1.86 1.86 1.86 1.86 1.865 1.871 1.871 1.882 1.882 1.906 1.93 1.93 1.961 2.006 2.006 2.067 2.067 2.132 2.185 2.185 2.241 2.283 2.283 2.317 2.317 2.353 2.38 2.38 2.39 2.39 2.38 2.38 2.371 2.371 2.371 2.362 2.362 2.362 2.362 2.371 2.371 2.371 2.38 2.38 2.39 2.39 2.39 2.39 2.39 2.38 2.38 2.38 2.362 2.362 2.353 2.326 2.326 2.309 2.309 2.291 2.266 2.266 2.233 2.217 2.217 2.185 2.185 2.154 2.132 2.132 2.11 2.088 2.088 2.067 2.067 2.06 2.053 2.053 2.046 2.046 2.06 2.06 2.081 2.081 2.11 2.162 2.162 2.209 2.258 2.258 2.317 2.317 2.38 2.428 2.428 2.467 2.487 2.487 2.497 2.497 2.487 2.487 2.487 2.487 2.487 2.487 2.487 2.487 2.487 2.487 2.487 2.477 2.477 2.477 2.477 2.477 2.477 2.477 2.467 2.447 2.447 2.447 2.447 2.447 2.447 2.447 2.447 2.447 2.457 2.457 2.457 2.457 2.457 2.477 2.477 2.477 2.477 2.477 2.477 2.487 2.487 2.487 2.497 2.497 2.497 2.497 2.507 2.528 2.528 2.539 2.549 2.549 2.56 2.56 2.56 2.571 2.571 2.571 2.571 2.56 2.56 2.549 2.528 2.528 2.507 2.487 2.487 2.457 2.457 2.437 2.428 2.428 2.409 2.39 2.39 2.38 2.38 2.344 2.335 2.335 2.335 2.335 0 0 0 0 0 0 0 0 0 0 0 0 0 0 0 0 0 0 0 0 0 0 0 0 0 0 0 0 0 0 0 0 0 0 0 0 0 0 0 0 0 0 0 0 0 0 0 0 0 0 0 0 0 0 0 0 0 0 0 0 0 0 0 0 0 0 0 0 0 0 0 0 0 0 0 0 0 0 0 0 0 0 0 0 0 0 0 0 0 0 0 0 0 0 0 0 0 0 0 0 0 0 0 0 0 0 0 0 0 0 0 0 0 0 0 0 0 0 0 0 0 0 0 0 0 0 0 0 0 0 0 0 0 0 0 0 0 0 0 0 0 0 0 0 0 0 0 0 0 0 0 0 0 0 0 0 0 0 0 0 0 0 0 0.742 0.742 0.742 0.742 0.741 0.74 0.74 0.739 0.737 0.737 0.736 0.736 0.734 0.732 0.732 0.73 0.727 0.727 0.725 0.725 0.721 0.718
2.117 2.102 2.102 2.081 2.067 2.067 2.053 2.053 2.039 2.033 2.033 2.019 2.012 2.012 1.999 1.999 1.993 1.986 1.986 1.986 1.98 1.98 1.98 1.98 1.98 1.98 1.98 1.973 1.967 1.967 1.955 1.942 1.942 1.936 1.936 1.93 1.924 1.924 1.924 1.93 1.955 1.955 1.993 1.993 2.039 2.095 2.095 2.147 2.193 2.193 2.217 2.217 2.241 2.258 2.258 2.266 2.266 2.266 2.274 2.274 2.274 2.283 2.283 2.283 2.283 2.249 2.209 2.209 2.162 2.162 2.117 2.074 2.074 2.019 1.98 1.98 1.942 1.942 1.924 1.918 1.918 1.912 1.912 1.912 1.906 1.906 1.9 1.894 1.894 1.888 1.882 1.882 1.877 1.877 1.871 1.865 1.865 1.865 1.86 1.86 1.86 1.86 1.86 1.865 1.865 1.865 1.865 1.865 1.865 1.865 1.865 1.86 1.86 1.86 1.86 1.86 1.86 1.865 1.871 1.871 1.882 1.882 1.906 1.93 1.93 1.961 2.026 2.026 2.088 2.088 2.147 2.201 2.201 2.258 2.291 2.291 2.335 2.335 2.371 2.399 2.399 2.409 2.409 2.409 2.409 2.409 2.399 2.399 2.399 2.399 2.409 2.409 2.409 2.409 2.418 2.428 2.428 2.428 2.437 2.437 2.437 2.437 2.428 2.428 2.428 2.409 2.409 2.399 2.38 2.38 2.362 2.362 2.335 2.309 2.309 2.283 2.258 2.258 2.217 2.217 2.193 2.162 2.162 2.139 2.11 2.11 2.088 2.088 2.074 2.067 2.067 2.06 2.06 2.074 2.074 2.102 2.102 2.139 2.177 2.177 2.225 2.274 2.274 2.335 2.335 2.399 2.447 2.447 2.467 2.487 2.487 2.497 2.497 2.487 2.487 2.487 2.487 2.487 2.487 2.477 2.477 2.477 2.477 2.467 2.467 2.467 2.467 2.467 2.467 2.467 2.467 2.457 2.447 2.447 2.437 2.437 2.437 2.437 2.437 2.437 2.447 2.447 2.447 2.447 2.457 2.457 2.477 2.477 2.477 2.477 2.477 2.477 2.477 2.477 2.477 2.477 2.477 2.487 2.487 2.507 2.518 2.518 2.528 2.549 2.549 2.56 2.56 2.56 2.571 2.571 2.571 2.571 2.56 2.56 2.549 2.528 2.528 2.507 2.487 2.487 2.457 2.457 2.437 2.428 2.428 2.409 2.39 2.39 2.38 2.38 2.371 2.371 2.371 2.371 2.371 0 0 0 0 0 0 0 0 0 0 0 0 0 0 0 0 0 0 0 0 0 0 0 0 0 0 0 0 0 0 0 0 0 0 0 0 0 0 0 0 0 0 0 0 0 0 0 0 0 0 0 0 0 0 0 0 0 0 0 0 0 0 0 0 0 0 0 0 0 0 0 0 0 0 0 0 0 0 0 0 0 0 0 0 0 0 0 0 0 0 0 0 0 0 0 0 0 0 0 0 0 0 0 0 0 0 0 0 0 0 0 0 0 0 0 0 0 0 0 0 0 0 0 0 0 0 0 0 0 0 0 0 0 0 0 0 0 0 0 0 0 0 0 0 0 0 0 0 0 0 0 0 0 0 0 0 0 0 0 0 0 0 0.743 0.743 0.742 0.741 0.741 0.741 0.74 0.74 0.738 0.737 0.737 0.735 0.735 0.734 0.732 0.732 0.729 0.727 0.727 0.724 0.724 0.721 0.718
2.117 2.102 2.102 2.081 2.067 2.067 2.053 2.053 2.039 2.033 2.033 2.026 2.019 2.019 2.006 2.006 1.999 1.999 1.999 1.993 1.993 1.993 1.993 1.993 1.993 1.986 1.986 1.98 1.973 1.973 1.967 1.955 1.955 1.942 1.942 1.942 1.936 1.936 1.936 1.948 1.973 1.973 2.012 2.012 2.053 2.095 2.095 2.147 2.193 2.193 2.217 2.217 2.241 2.258 2.258 2.266 2.266 2.266 2.274 2.274 2.274 2.283 2.283 2.283 2.283 2.249 2.209 2.209 2.162 2.162 2.117 2.074 2.074 2.033 1.993 1.993 1.955 1.955 1.93 1.924 1.924 1.912 1.912 1.912 1.906 1.906 1.9 1.894 1.894 1.888 1.888 1.888 1.882 1.882 1.877 1.871 1.871 1.865 1.865 1.865 1.865 1.865 1.865 1.865 1.871 1.871 1.871 1.871 1.871 1.871 1.865 1.865 1.871 1.871 1.871 1.871 1.871 1.877 1.888 1.888 1.9 1.9 1.924 1.948 1.948 1.98 2.026 2.026 2.088 2.088 2.147 2.201 2.201 2.258 2.3 2.3 2.344 2.344 2.39 2.418 2.418 2.428 2.428 2.428 2.428 2.428 2.437 2.437 2.437 2.437 2.437 2.437 2.437 2.437 2.437 2.447 2.447 2.457 2.467 2.467 2.457 2.457 2.447 2.447 2.437 2.428 2.428 2.409 2.39 2.39 2.38 2.38 2.362 2.335 2.335 2.3 2.283 2.283 2.217 2.217 2.193 2.162 2.162 2.139 2.11 2.11 2.088 2.088 2.074 2.067 2.067 2.06 2.06 2.074 2.074 2.102 2.102 2.139 2.177 2.177 2.249 2.291 2.291 2.353 2.353 2.418 2.457 2.457 2.477 2.487 2.487 2.497 2.497 2.497 2.497 2.487 2.487 2.487 2.487 2.477 2.477 2.477 2.477 2.467 2.467 2.467 2.467 2.467 2.467 2.467 2.467 2.457 2.447 2.447 2.437 2.437 2.437 2.437 2.437 2.437 2.447 2.447 2.447 2.447 2.457 2.457 2.477 2.477 2.477 2.477 2.477 2.477 2.477 2.477 2.477 2.477 2.477 2.487 2.487 2.507 2.518 2.518 2.518 2.539 2.539 2.56 2.56 2.571 2.571 2.571 2.571 2.571 2.571 2.571 2.56 2.539 2.539 2.518 2.497 2.497 2.477 2.477 2.457 2.437 2.437 2.428 2.409 2.409 2.399 2.399 2.399 2.39 2.39 2.39 2.399 0 0 0 0 0 0 0 0 0 0 0 0 0 0 0 0 0 0 0 0 0 0 0 0 0 0 0 0 0 0 0 0 0 0 0 0 0 0 0 0 0 0 0 0 0 0 0 0 0 0 0 0 0 0 0 0 0 0 0 0 0 0 0 0 0 0 0 0 0 0 0 0 0 0 0 0 0 0 0 0 0 0 0 0 0 0 0 0 0 0 0 0 0 0 0 0 0 0 0 0 0 0 0 0 0 0 0 0 0 0 0 0 0 0 0 0 0 0 0 0 0 0 0 0 0 0 0 0 0 0 0 0 0 0 0 0 0 0 0 0 0 0 0 0 0 0 0 0 0 0 0 0 0 0 0 0 0 0 0 0 0 0 0.743 0.743 0.742 0.741 0.741 0.741 0.74 0.74 0.738 0.737 0.737 0.735 0.735 0.734 0.732 0.732 0.729 0.727 0.727 0.724 0.724 0.721 0.718
2.132 2.11 2.11 2.095 2.074 2.074 2.06 2.06 2.046 2.039 2.039 2.033 2.026 2.026 2.019 2.019 2.012 2.006 2.006 2.006 2.006 2.006 2.006 2.006 2.006 1.999 1.999 1.993 1.986 1.986 1.973 1.967 1.967 1.955 1.955 1.955 1.942 1.942 1.942 1.955 1.986 1.986 2.026 2.026 2.067 2.11 2.11 2.154 2.201 2.201 2.233 2.233 2.249 2.266 2.266 2.274 2.274 2.274 2.283 2.283 2.283 2.291 2.291 2.291 2.291 2.266 2.225 2.225 2.185 2.185 2.132 2.095 2.095 2.046 2.006 2.006 1.967 1.967 1.936 1.924 1.924 1.918 1.912 1.912 1.906 1.906 1.906 1.9 1.9 1.894 1.888 1.888 1.882 1.882 1.877 1.877 1.877 1.871 1.871 1.871 1.871 1.871 1.871 1.871 1.871 1.871 1.871 1.871 1.871 1.877 1.877 1.877 1.877 1.877 1.877 1.888 1.888 1.894 1.906 1.906 1.924 1.924 1.942 1.967 1.967 2.006 2.039 2.039 2.095 2.095 2.154 2.209 2.209 2.258 2.3 2.3 2.344 2.344 2.39 2.418 2.418 2.428 2.428 2.428 2.428 2.428 2.437 2.437 2.437 2.437 2.437 2.437 2.437 2.437 2.437 2.447 2.447 2.457 2.467 2.467 2.457 2.457 2.447 2.447 2.437 2.428 2.428 2.409 2.39 2.39 2.38 2.38 2.362 2.335 2.335 2.3 2.283 2.283 2.249 2.249 2.217 2.185 2.185 2.162 2.132 2.132 2.11 2.11 2.088 2.081 2.081 2.074 2.074 2.095 2.095 2.117 2.117 2.154 2.201 2.201 2.249 2.291 2.291 2.353 2.353 2.418 2.457 2.457 2.477 2.487 2.487 2.497 2.497 2.497 2.497 2.487 2.477 2.477 2.477 2.477 2.477 2.467 2.467 2.467 2.457 2.457 2.457 2.457 2.457 2.457 2.457 2.447 2.437 2.437 2.428 2.428 2.428 2.428 2.437 2.437 2.437 2.447 2.447 2.447 2.457 2.457 2.477 2.477 2.477 2.477 2.467 2.467 2.467 2.467 2.467 2.477 2.477 2.477 2.477 2.487 2.497 2.497 2.518 2.539 2.539 2.56 2.56 2.571 2.581 2.581 2.581 2.581 2.571 2.571 2.56 2.539 2.539 2.528 2.507 2.507 2.477 2.477 2.457 2.437 2.437 2.428 2.409 2.409 2.399 2.399 2.399 2.39 2.39 2.39 2.399 0 0 0 0 0 0 0 0 0 0 0 0 0 0 0 0 0 0 0 0 0 0 0 0 0 0 0 0 0 0 0 0 0 0 0 0 0 0 0 0 0 0 0 0 0 0 0 0 0 0 0 0 0 0 0 0 0 0 0 0 0 0 0 0 0 0 0 0 0 0 0 0 0 0 0 0 0 0 0 0 0 0 0 0 0 0 0 0 0 0 0 0 0 0 0 0 0 0 0 0 0 0 0 0 0 0 0 0 0 0 0 0 0 0 0 0 0 0 0 0 0 0 0 0 0 0 0 0 0 0 0 0 0 0 0 0 0 0 0 0 0 0 0 0 0 0 0 0 0 0 0 0 0 0 0 0 0 0 0 0 0 0 0.742 0.742 0.742 0.741 0.741 0.741 0.74 0.74 0.738 0.736 0.736 0.735 0.735 0.734 0.732 0.732 0.729 0.727 0.727 0.724 0.724 0.721 0.718
2.132 2.11 2.11 2.095 2.074 2.074 2.06 2.06 2.046 2.039 2.039 2.033 2.026 2.026 2.019 2.019 2.012 2.006 2.006 2.006 2.006 2.006 2.006 2.006 2.006 1.999 1.999 1.993 1.986 1.986 1.973 1.967 1.967 1.955 1.955 1.955 1.942 1.942 1.942 1.955 1.986 1.986 2.026 2.026 2.067 2.11 2.11 2.169 2.217 2.217 2.241 2.241 2.266 2.274 2.274 2.283 2.291 2.291 2.291 2.291 2.291 2.3 2.3 2.3 2.3 2.283 2.241 2.241 2.201 2.201 2.154 2.095 2.095 2.046 2.006 2.006 1.967 1.967 1.936 1.924 1.924 1.918 1.912 1.912 1.906 1.906 1.906 1.9 1.9 1.894 1.888 1.888 1.882 1.882 1.877 1.877 1.877 1.871 1.871 1.871 1.871 1.871 1.871 1.871 1.871 1.871 1.871 1.871 1.871 1.877 1.877 1.877 1.877 1.877 1.877 1.888 1.888 1.894 1.906 1.906 1.924 1.924 1.942 1.967 1.967 2.006 2.039 2.039 2.117 2.117 2.169 2.217 2.217 2.266 2.309 2.309 2.353 2.353 2.399 2.437 2.437 2.447 2.447 2.447 2.457 2.457 2.457 2.457 2.457 2.457 2.467 2.467 2.467 2.467 2.467 2.477 2.477 2.477 2.477 2.477 2.477 2.477 2.467 2.467 2.457 2.437 2.437 2.428 2.418 2.418 2.399 2.399 2.38 2.353 2.353 2.326 2.309 2.309 2.274 2.274 2.249 2.209 2.209 2.185 2.154 2.154 2.124 2.124 2.11 2.102 2.102 2.095 2.095 2.117 2.117 2.147 2.147 2.185 2.225 2.225 2.266 2.317 2.317 2.38 2.38 2.437 2.457 2.457 2.477 2.487 2.487 2.497 2.497 2.487 2.487 2.477 2.477 2.477 2.467 2.467 2.467 2.457 2.457 2.457 2.447 2.447 2.447 2.447 2.457 2.447 2.447 2.437 2.428 2.428 2.428 2.428 2.428 2.428 2.428 2.428 2.437 2.447 2.447 2.447 2.457 2.457 2.477 2.477 2.467 2.467 2.457 2.457 2.457 2.457 2.457 2.457 2.457 2.467 2.467 2.477 2.487 2.487 2.507 2.539 2.539 2.549 2.549 2.571 2.581 2.581 2.581 2.581 2.571 2.571 2.56 2.539 2.539 2.528 2.507 2.507 2.477 2.477 2.467 2.447 2.447 2.437 2.428 2.428 2.418 2.418 2.409 2.409 2.409 2.409 2.418 0 0 0 0 0 0 0 0 0 0 0 0 0 0 0 0 0 0 0 0 0 0 0 0 0 0 0 0 0 0 0 0 0 0 0 0 0 0 0 0 0 0 0 0 0 0 0 0 0 0 0 0 0 0 0 0 0 0 0 0 0 0 0 0 0 0 0 0 0 0 0 0 0 0 0 0 0 0 0 0 0 0 0 0 0 0 0 0 0 0 0 0 0 0 0 0 0 0 0 0 0 0 0 0 0 0 0 0 0 0 0 0 0 0 0 0 0 0 0 0 0 0 0 0 0 0 0 0 0 0 0 0 0 0 0 0 0 0 0 0 0 0 0 0 0 0 0 0 0 0 0 0 0 0 0 0 0 0 0 0 0 0 0.742 0.742 0.742 0.741 0.741 0.741 0.74 0.74 0.738 0.736 0.736 0.735 0.735 0.733 0.732 0.732 0.729 0.727 0.727 0.724 0.724 0.721 0.718
2.139 2.124 2.124 2.102 2.088 2.088 2.074 2.074 2.06 2.053 2.053 2.046 2.039 2.039 2.033 2.033 2.026 2.026 2.026 2.019 2.019 2.019 2.019 2.019 2.019 2.012 2.012 2.006 1.999 1.999 1.993 1.98 1.98 1.967 1.967 1.961 1.961 1.961 1.961 1.973 1.999 1.999 2.039 2.039 2.074 2.124 2.124 2.169 2.217 2.217 2.241 2.241 2.266 2.274 2.274 2.283 2.291 2.291 2.291 2.291 2.291 2.3 2.3 2.3 2.3 2.283 2.241 2.241 2.201 2.201 2.154 2.11 2.11 2.067 2.019 2.019 1.973 1.973 1.948 1.936 1.936 1.924 1.918 1.918 1.912 1.912 1.906 1.9 1.9 1.894 1.888 1.888 1.882 1.882 1.882 1.877 1.877 1.877 1.877 1.877 1.877 1.877 1.877 1.877 1.877 1.877 1.877 1.877 1.877 1.882 1.882 1.888 1.888 1.888 1.888 1.9 1.9 1.906 1.924 1.924 1.942 1.942 1.967 1.993 1.993 2.026 2.06 2.06 2.117 2.117 2.169 2.217 2.217 2.266 2.309 2.309 2.353 2.353 2.418 2.457 2.457 2.467 2.477 2.477 2.477 2.477 2.487 2.487 2.487 2.487 2.487 2.487 2.487 2.487 2.497 2.497 2.497 2.497 2.497 2.497 2.497 2.497 2.477 2.477 2.477 2.457 2.457 2.447 2.428 2.428 2.418 2.418 2.409 2.38 2.38 2.326 2.309 2.309 2.274 2.274 2.249 2.209 2.209 2.185 2.154 2.154 2.124 2.124 2.11 2.102 2.102 2.095 2.095 2.117 2.117 2.147 2.147 2.185 2.225 2.225 2.266 2.344 2.344 2.39 2.39 2.447 2.467 2.467 2.477 2.487 2.487 2.497 2.497 2.487 2.487 2.477 2.477 2.477 2.467 2.467 2.467 2.457 2.457 2.457 2.447 2.447 2.447 2.447 2.457 2.447 2.447 2.437 2.428 2.428 2.428 2.428 2.428 2.428 2.428 2.428 2.437 2.447 2.447 2.447 2.457 2.457 2.477 2.477 2.467 2.467 2.457 2.457 2.457 2.457 2.457 2.457 2.457 2.467 2.467 2.477 2.487 2.487 2.507 2.539 2.539 2.549 2.549 2.571 2.581 2.581 2.581 2.581 2.571 2.571 2.56 2.549 2.549 2.528 2.507 2.507 2.487 2.487 2.477 2.467 2.467 2.447 2.447 2.447 2.437 2.437 2.437 2.428 2.428 2.428 2.437 0 0 0 0 0 0 0 0 0 0 0 0 0 0 0 0 0 0 0 0 0 0 0 0 0 0 0 0 0 0 0 0 0 0 0 0 0 0 0 0 0 0 0 0 0 0 0 0 0 0 0 0 0 0 0 0 0 0 0 0 0 0 0 0 0 0 0 0 0 0 0 0 0 0 0 0 0 0 0 0 0 0 0 0 0 0 0 0 0 0 0 0 0 0 0 0 0 0 0 0 0 0 0 0 0 0 0 0 0 0 0 0 0 0 0 0 0 0 0 0 0 0 0 0 0 0 0 0 0 0 0 0 0 0 0 0 0 0 0 0 0 0 0 0 0 0 0 0 0 0 0 0 0 0 0 0 0 0 0 0 0 0 0.742 0.742 0.742 0.741 0.741 0.741 0.74 0.74 0.738 0.736 0.736 0.735 0.735 0.733 0.732 0.732 0.729 0.726 0.726 0.723 0.723 0.721 0.717
2.154 2.132 2.132 2.117 2.102 2.102 2.088 2.088 2.074 2.067 2.067 2.06 2.053 2.053 2.046 2.046 2.039 2.039 2.039 2.039 2.039 2.039 2.039 2.039 2.039 2.033 2.033 2.026 2.012 2.012 2.006 1.993 1.993 1.98 1.98 1.973 1.973 1.973 1.973 1.986 2.012 2.012 2.053 2.053 2.095 2.132 2.132 2.177 2.225 2.225 2.258 2.258 2.283 2.291 2.291 2.3 2.3 2.3 2.3 2.3 2.3 2.309 2.309 2.309 2.309 2.3 2.266 2.266 2.233 2.233 2.177 2.132 2.132 2.088 2.039 2.039 1.993 1.993 1.961 1.936 1.936 1.93 1.918 1.918 1.912 1.912 1.906 1.9 1.9 1.894 1.888 1.888 1.882 1.882 1.882 1.877 1.877 1.877 1.877 1.877 1.877 1.877 1.877 1.877 1.877 1.877 1.877 1.877 1.877 1.882 1.882 1.888 1.888 1.888 1.888 1.912 1.912 1.93 1.942 1.942 1.967 1.967 1.986 2.012 2.012 2.039 2.074 2.074 2.124 2.124 2.177 2.225 2.225 2.274 2.317 2.317 2.371 2.371 2.418 2.457 2.457 2.467 2.477 2.477 2.477 2.477 2.487 2.487 2.487 2.487 2.487 2.487 2.487 2.487 2.497 2.497 2.497 2.497 2.497 2.497 2.497 2.497 2.477 2.477 2.477 2.457 2.457 2.447 2.428 2.428 2.418 2.418 2.409 2.38 2.38 2.353 2.335 2.335 2.3 2.3 2.274 2.241 2.241 2.209 2.177 2.177 2.139 2.139 2.132 2.124 2.124 2.124 2.124 2.147 2.147 2.169 2.169 2.209 2.249 2.249 2.291 2.344 2.344 2.39 2.39 2.447 2.467 2.467 2.477 2.487 2.487 2.487 2.487 2.477 2.477 2.477 2.467 2.467 2.457 2.457 2.457 2.447 2.447 2.447 2.437 2.437 2.437 2.437 2.437 2.437 2.437 2.428 2.418 2.418 2.418 2.418 2.428 2.428 2.428 2.428 2.437 2.447 2.447 2.447 2.457 2.457 2.467 2.467 2.467 2.467 2.457 2.447 2.447 2.447 2.447 2.447 2.447 2.457 2.457 2.467 2.487 2.487 2.507 2.528 2.528 2.549 2.549 2.571 2.581 2.581 2.581 2.581 2.571 2.571 2.56 2.549 2.549 2.528 2.507 2.507 2.487 2.487 2.477 2.467 2.467 2.447 2.447 2.447 2.437 2.437 2.437 2.428 2.428 2.428 2.437 0 0 0 0 0 0 0 0 0 0 0 0 0 0 0 0 0 0 0 0 0 0 0 0 0 0 0 0 0 0 0 0 0 0 0 0 0 0 0 0 0 0 0 0 0 0 0 0 0 0 0 0 0 0 0 0 0 0 0 0 0 0 0 0 0 0 0 0 0 0 0 0 0 0 0 0 0 0 0 0 0 0 0 0 0 0 0 0 0 0 0 0 0 0 0 0 0 0 0 0 0 0 0 0 0 0 0 0 0 0 0 0 0 0 0 0 0 0 0 0 0 0 0 0 0 0 0 0 0 0 0 0 0 0 0 0 0 0 0 0 0 0 0 0 0 0 0 0 0 0 0 0 0 0 0 0 0 0 0 0 0 0 0.742 0.742 0.742 0.741 0.741 0.74 0.74 0.74 0.738 0.736 0.736 0.735 0.735 0.733 0.731 0.731 0.729 0.726 0.726 0.722 0.722 0.72 0.716
2.154 2.132 2.132 2.117 2.102 2.102 2.088 2.088 2.074 2.067 2.067 2.06 2.053 2.053 2.046 2.046 2.039 2.039 2.039 2.039 2.039 2.039 2.039 2.039 2.039 2.033 2.033 2.026 2.012 2.012 2.006 1.993 1.993 1.98 1.98 1.973 1.973 1.973 1.973 1.986 2.012 2.012 2.053 2.053 2.095 2.132 2.132 2.177 2.225 2.225 2.274 2.274 2.291 2.3 2.3 2.309 2.309 2.309 2.317 2.317 2.317 2.317 2.317 2.317 2.326 2.317 2.291 2.291 2.249 2.249 2.177 2.132 2.132 2.088 2.039 2.039 1.993 1.993 1.961 1.936 1.936 1.93 1.918 1.918 1.912 1.912 1.912 1.906 1.906 1.9 1.894 1.894 1.888 1.888 1.888 1.882 1.882 1.882 1.882 1.882 1.882 1.882 1.882 1.882 1.882 1.882 1.882 1.888 1.888 1.888 1.888 1.888 1.894 1.894 1.9 1.912 1.912 1.93 1.942 1.942 1.967 1.967 1.986 2.012 2.012 2.039 2.074 2.074 2.124 2.124 2.185 2.233 2.233 2.283 2.335 2.335 2.39 2.39 2.437 2.477 2.477 2.487 2.497 2.497 2.497 2.497 2.497 2.497 2.497 2.497 2.497 2.497 2.507 2.507 2.507 2.507 2.507 2.518 2.518 2.518 2.507 2.507 2.497 2.497 2.487 2.477 2.477 2.467 2.457 2.457 2.447 2.447 2.437 2.409 2.409 2.38 2.371 2.371 2.335 2.335 2.309 2.266 2.266 2.233 2.193 2.193 2.162 2.162 2.147 2.147 2.147 2.147 2.147 2.169 2.169 2.193 2.193 2.225 2.266 2.266 2.317 2.362 2.362 2.399 2.399 2.457 2.467 2.467 2.477 2.487 2.487 2.487 2.487 2.477 2.477 2.467 2.457 2.457 2.447 2.437 2.437 2.437 2.437 2.428 2.428 2.428 2.418 2.418 2.428 2.418 2.418 2.418 2.409 2.409 2.409 2.418 2.418 2.418 2.428 2.428 2.437 2.437 2.437 2.447 2.457 2.457 2.467 2.467 2.457 2.457 2.447 2.447 2.447 2.447 2.447 2.447 2.447 2.457 2.457 2.467 2.477 2.477 2.507 2.528 2.528 2.56 2.56 2.571 2.581 2.581 2.581 2.581 2.571 2.571 2.56 2.549 2.549 2.539 2.507 2.507 2.487 2.487 2.477 2.477 2.477 2.467 2.457 2.457 2.447 2.447 2.447 2.437 2.437 2.437 0 0 0 0 0 0 0 0 0 0 0 0 0 0 0 0 0 0 0 0 0 0 0 0 0 0 0 0 0 0 0 0 0 0 0 0 0 0 0 0 0 0 0 0 0 0 0 0 0 0 0 0 0 0 0 0 0 0 0 0 0 0 0 0 0 0 0 0 0 0 0 0 0 0 0 0 0 0 0 0 0 0 0 0 0 0 0 0 0 0 0 0 0 0 0 0 0 0 0 0 0 0 0 0 0 0 0 0 0 0 0 0 0 0 0 0 0 0 0 0 0 0 0 0 0 0 0 0 0 0 0 0 0 0 0 0 0 0 0 0 0 0 0 0 0 0 0 0 0 0 0 0 0 0 0 0 0 0 0 0 0 0 0 0 0 0.742 0.741 0.741 0.74 0.74 0.74 0.738 0.737 0.737 0.735 0.735 0.733 0.731 0.731 0.73 0.727 0.727 0.722 0.722 0.72 0.716
2.162 2.147 2.147 2.132 2.117 2.117 2.102 2.102 2.088 2.081 2.081 2.074 2.067 2.067 2.06 2.06 2.06 2.06 2.06 2.053 2.053 2.053 2.053 2.053 2.053 2.053 2.053 2.039 2.033 2.033 2.019 2.006 2.006 1.993 1.993 1.986 1.98 1.98 1.98 1.993 2.026 2.026 2.06 2.06 2.102 2.147 2.147 2.193 2.241 2.241 2.274 2.274 2.291 2.3 2.3 2.309 2.309 2.309 2.317 2.317 2.317 2.317 2.317 2.317 2.326 2.317 2.291 2.291 2.249 2.249 2.201 2.154 2.154 2.11 2.06 2.06 2.012 2.012 1.973 1.948 1.948 1.93 1.924 1.924 1.918 1.918 1.912 1.912 1.912 1.906 1.906 1.906 1.9 1.9 1.9 1.894 1.894 1.894 1.894 1.894 1.894 1.894 1.894 1.888 1.888 1.888 1.888 1.9 1.9 1.9 1.9 1.906 1.906 1.906 1.918 1.93 1.93 1.948 1.967 1.967 1.986 1.986 2.006 2.039 2.039 2.06 2.088 2.088 2.139 2.139 2.185 2.233 2.233 2.283 2.335 2.335 2.39 2.39 2.437 2.477 2.477 2.487 2.518 2.518 2.518 2.518 2.518 2.518 2.518 2.518 2.518 2.518 2.518 2.518 2.528 2.528 2.528 2.528 2.528 2.528 2.528 2.528 2.507 2.507 2.507 2.497 2.497 2.487 2.477 2.477 2.447 2.447 2.437 2.409 2.409 2.38 2.371 2.371 2.335 2.335 2.309 2.266 2.266 2.233 2.193 2.193 2.162 2.162 2.147 2.147 2.147 2.147 2.147 2.169 2.169 2.193 2.193 2.225 2.266 2.266 2.317 2.362 2.362 2.399 2.399 2.467 2.477 2.477 2.487 2.487 2.487 2.487 2.487 2.477 2.477 2.467 2.457 2.457 2.447 2.437 2.437 2.437 2.437 2.428 2.428 2.428 2.418 2.418 2.428 2.418 2.418 2.418 2.409 2.409 2.409 2.418 2.418 2.418 2.428 2.428 2.437 2.437 2.437 2.447 2.457 2.457 2.467 2.467 2.457 2.457 2.447 2.447 2.447 2.447 2.447 2.447 2.447 2.457 2.457 2.467 2.477 2.477 2.507 2.528 2.528 2.56 2.56 2.581 2.592 2.592 2.581 2.581 2.581 2.581 2.571 2.549 2.549 2.539 2.518 2.518 2.497 2.497 2.487 2.477 2.477 2.467 2.467 2.467 2.457 2.457 2.447 2.447 2.447 2.447 0 0 0 0 0 0 0 0 0 0 0 0 0 0 0 0 0 0 0 0 0 0 0 0 0 0 0 0 0 0 0 0 0 0 0 0 0 0 0 0 0 0 0 0 0 0 0 0 0 0 0 0 0 0 0 0 0 0 0 0 0 0 0 0 0 0 0 0 0 0 0 0 0 0 0 0 0 0 0 0 0 0 0 0 0 0 0 0 0 0 0 0 0 0 0 0 0 0 0 0 0 0 0 0 0 0 0 0 0 0 0 0 0 0 0 0 0 0 0 0 0 0 0 0 0 0 0 0 0 0 0 0 0 0 0 0 0 0 0 0 0 0 0 0 0 0 0 0 0 0 0 0 0 0 0 0 0 0 0 0 0 0 0 0 0 0.742 0.741 0.741 0.74 0.739 0.739 0.738 0.737 0.736 0.734 0.734 0.733 0.731 0.731 0.729 0.726 0.726 0.722 0.722 0.72 0.716
2.169 2.162 2.162 2.139 2.132 2.132 2.117 2.117 2.102 2.095 2.095 2.088 2.088 2.088 2.081 2.081 2.081 2.074 2.074 2.074 2.074 2.074 2.074 2.074 2.074 2.067 2.067 2.039 2.033 2.033 2.019 2.006 2.006 1.993 1.993 1.986 1.98 1.98 1.98 1.993 2.026 2.026 2.074 2.074 2.11 2.154 2.154 2.201 2.249 2.249 2.291 2.291 2.309 2.317 2.317 2.326 2.326 2.326 2.326 2.326 2.326 2.335 2.335 2.335 2.335 2.335 2.317 2.317 2.283 2.283 2.233 2.185 2.185 2.132 2.088 2.088 2.033 2.033 1.973 1.948 1.948 1.93 1.924 1.924 1.918 1.918 1.912 1.912 1.912 1.906 1.906 1.906 1.9 1.9 1.9 1.894 1.894 1.894 1.894 1.894 1.894 1.894 1.894 1.888 1.888 1.888 1.888 1.9 1.9 1.9 1.9 1.906 1.906 1.906 1.918 1.93 1.93 1.948 1.986 1.986 2.006 2.006 2.026 2.053 2.053 2.074 2.102 2.102 2.147 2.147 2.201 2.249 2.249 2.291 2.353 2.353 2.399 2.399 2.457 2.497 2.497 2.507 2.518 2.518 2.518 2.518 2.518 2.518 2.518 2.518 2.518 2.518 2.518 2.518 2.528 2.528 2.528 2.528 2.528 2.528 2.528 2.528 2.507 2.507 2.507 2.497 2.497 2.487 2.477 2.477 2.467 2.467 2.457 2.437 2.437 2.418 2.399 2.399 2.362 2.362 2.335 2.291 2.291 2.249 2.217 2.217 2.177 2.177 2.162 2.162 2.162 2.162 2.162 2.185 2.185 2.209 2.209 2.249 2.283 2.283 2.326 2.38 2.38 2.418 2.418 2.467 2.477 2.477 2.487 2.487 2.487 2.487 2.487 2.477 2.477 2.467 2.457 2.457 2.447 2.437 2.437 2.428 2.428 2.428 2.418 2.418 2.418 2.418 2.418 2.418 2.418 2.409 2.409 2.409 2.409 2.409 2.418 2.418 2.428 2.428 2.437 2.437 2.437 2.447 2.457 2.457 2.467 2.467 2.457 2.457 2.447 2.437 2.437 2.437 2.437 2.437 2.437 2.447 2.447 2.457 2.477 2.477 2.497 2.528 2.528 2.56 2.56 2.581 2.592 2.592 2.581 2.581 2.581 2.581 2.571 2.549 2.549 2.539 2.518 2.518 2.497 2.497 2.487 2.477 2.477 2.467 2.467 2.467 2.457 2.457 2.447 2.447 2.447 2.447 0 0 0 0 0 0 0 0 0 0 0 0 0 0 0 0 0 0 0 0 0 0 0 0 0 0 0 0 0 0 0 0 0 0 0 0 0 0 0 0 0 0 0 0 0 0 0 0 0 0 0 0 0 0 0 0 0 0 0 0 0 0 0 0 0 0 0 0 0 0 0 0 0 0 0 0 0 0 0 0 0 0 0 0 0 0 0 0 0 0 0 0 0 0 0 0 0 0 0 0 0 0 0 0 0 0 0 0 0 0 0 0 0 0 0 0 0 0 0 0 0 0 0 0 0 0 0 0 0 0 0 0 0 0 0 0 0 0 0 0 0 0 0 0 0 0 0 0 0 0 0 0 0 0 0 0 0 0 0 0 0 0 0 0 0 0.742 0.739 0.739 0.739 0.739 0.739 0.737 0.737 0.736 0.734 0.734 0.733 0.732 0.732 0.729 0.726 0.726 0.721 0.721 0.721 0.716
2.169 2.162 2.162 2.139 2.132 2.132 2.117 2.117 2.102 2.095 2.095 2.088 2.088 2.088 2.081 2.081 2.081 2.074 2.074 2.074 2.074 2.074 2.074 2.074 2.074 2.067 2.067 2.06 2.046 2.046 2.039 2.019 2.019 2.006 2.006 1.999 1.993 1.993 1.993 2.006 2.033 2.033 2.074 2.074 2.11 2.154 2.154 2.201 2.249 2.249 2.291 2.291 2.309 2.317 2.317 2.326 2.344 2.344 2.344 2.344 2.344 2.344 2.344 2.344 2.353 2.353 2.344 2.344 2.283 2.283 2.233 2.185 2.185 2.132 2.088 2.088 2.033 2.033 1.993 1.961 1.961 1.942 1.93 1.93 1.924 1.924 1.918 1.918 1.918 1.912 1.912 1.912 1.906 1.906 1.906 1.9 1.9 1.9 1.9 1.9 1.9 1.9 1.894 1.894 1.9 1.9 1.9 1.906 1.906 1.912 1.912 1.912 1.924 1.924 1.936 1.948 1.948 1.967 1.986 1.986 2.006 2.006 2.026 2.053 2.053 2.074 2.102 2.102 2.147 2.147 2.201 2.258 2.258 2.309 2.362 2.362 2.418 2.418 2.477 2.507 2.507 2.528 2.528 2.528 2.528 2.528 2.528 2.528 2.528 2.528 2.528 2.528 2.528 2.528 2.528 2.539 2.539 2.539 2.539 2.539 2.539 2.539 2.528 2.528 2.518 2.507 2.507 2.507 2.497 2.497 2.487 2.487 2.487 2.467 2.467 2.447 2.418 2.418 2.39 2.39 2.362 2.317 2.317 2.274 2.233 2.233 2.177 2.177 2.162 2.162 2.162 2.162 2.162 2.201 2.201 2.225 2.225 2.266 2.309 2.309 2.344 2.39 2.39 2.428 2.428 2.467 2.477 2.477 2.487 2.487 2.487 2.487 2.487 2.477 2.477 2.467 2.457 2.457 2.447 2.437 2.437 2.428 2.428 2.428 2.418 2.418 2.418 2.418 2.418 2.418 2.418 2.409 2.409 2.409 2.409 2.409 2.418 2.418 2.428 2.428 2.437 2.447 2.447 2.457 2.457 2.457 2.467 2.467 2.467 2.467 2.457 2.437 2.437 2.437 2.437 2.437 2.437 2.447 2.447 2.457 2.477 2.477 2.497 2.528 2.528 2.56 2.56 2.581 2.592 2.592 2.581 2.581 2.581 2.581 2.571 2.56 2.56 2.539 2.528 2.528 2.507 2.507 2.497 2.487 2.487 2.477 2.477 2.477 2.467 2.467 2.467 2.457 2.457 2.457 0 0 0 0 0 0 0 0 0 0 0 0 0 0 0 0 0 0 0 0 0 0 0 0 0 0 0 0 0 0 0 0 0 0 0 0 0 0 0 0 0 0 0 0 0 0 0 0 0 0 0 0 0 0 0 0 0 0 0 0 0 0 0 0 0 0 0 0 0 0 0 0 0 0 0 0 0 0 0 0 0 0 0 0 0 0 0 0 0 0 0 0 0 0 0 0 0 0 0 0 0 0 0 0 0 0 0 0 0 0 0 0 0 0 0 0 0 0 0 0 0 0 0 0 0 0 0 0 0 0 0 0 0 0 0 0 0 0 0 0 0 0 0 0 0 0 0 0 0 0 0 0 0 0 0 0 0 0 0 0 0 0 0 0 0 0 0.739 0.739 0.739 0.739 0.739 0.737 0.737 0.736 0.734 0.734 0.733 0.733 0 0.73 0.726 0.726 0.721 0.721 0.721 0
2.185 2.177 2.177 2.162 2.147 2.147 2.139 2.139 2.132 2.117 2.117 2.11 2.11 2.11 2.102 2.102 2.095 2.095 2.095 2.095 2.095 2.095 2.095 2.095 2.095 2.088 2.088 2.074 2.06 2.06 2.046 2.033 2.033 2.019 2.019 2.006 1.993 1.993 1.993 2.012 2.046 2.046 2.088 2.088 2.124 2.169 2.169 2.217 2.266 2.266 2.3 2.3 2.326 2.335 2.335 2.335 2.344 2.344 2.344 2.344 2.344 2.344 2.344 2.344 2.353 2.353 2.344 2.344 2.309 2.309 2.266 2.225 2.225 2.169 2.117 2.117 2.067 2.067 2.019 1.98 1.98 1.955 1.942 1.942 1.936 1.936 1.924 1.924 1.924 1.924 1.924 1.924 1.912 1.912 1.912 1.912 1.912 1.906 1.906 1.906 1.906 1.906 1.906 1.906 1.906 1.906 1.906 1.918 1.918 1.924 1.924 1.93 1.942 1.942 1.955 1.967 1.967 1.986 2.006 2.006 2.026 2.026 2.046 2.067 2.067 2.081 2.11 2.11 2.162 2.162 2.209 2.258 2.258 2.309 2.362 2.362 2.418 2.418 2.477 2.507 2.507 2.528 2.528 2.528 2.528 2.528 2.528 2.528 2.528 2.528 2.528 2.528 2.528 2.528 2.528 2.539 2.539 2.539 2.539 2.539 2.539 2.539 2.528 2.528 2.518 2.507 2.507 2.507 2.497 2.497 2.487 2.487 2.487 2.467 2.467 2.447 2.418 2.418 2.39 2.39 2.362 2.317 2.317 2.274 2.233 2.233 2.193 2.193 2.177 2.177 2.177 2.177 2.177 2.201 2.201 2.225 2.225 2.266 2.309 2.309 2.344 2.39 2.39 2.428 2.428 2.467 2.477 2.477 2.487 2.487 2.487 2.487 2.487 2.477 2.477 2.457 2.457 2.457 2.437 2.437 2.437 2.428 2.428 2.418 2.418 2.418 2.409 2.409 2.409 2.409 2.409 2.409 2.409 2.409 2.409 2.409 2.418 2.418 2.428 2.428 2.437 2.447 2.447 2.457 2.457 2.457 2.467 2.467 2.467 2.467 2.447 2.437 2.437 2.437 2.437 2.437 2.437 2.447 2.447 2.457 2.477 2.477 2.507 2.528 2.528 2.56 2.56 2.581 2.592 2.592 2.592 2.592 2.581 2.581 2.581 2.56 2.56 2.549 2.539 2.539 2.518 2.518 2.507 2.497 2.497 2.487 2.477 2.477 2.477 2.477 2.477 2.457 2.457 2.457 0 0 0 0 0 0 0 0 0 0 0 0 0 0 0 0 0 0 0 0 0 0 0 0 0 0 0 0 0 0 0 0 0 0 0 0 0 0 0 0 0 0 0 0 0 0 0 0 0 0 0 0 0 0 0 0 0 0 0 0 0 0 0 0 0 0 0 0 0 0 0 0 0 0 0 0 0 0 0 0 0 0 0 0 0 0 0 0 0 0 0 0 0 0 0 0 0 0 0 0 0 0 0 0 0 0 0 0 0 0 0 0 0 0 0 0 0 0 0 0 0 0 0 0 0 0 0 0 0 0 0 0 0 0 0 0 0 0 0 0 0 0 0 0 0 0 0 0 0 0 0 0 0 0 0 0 0 0 0 0 0 0 0 0 0 0 0.739 0.739 0.739 0.739 0.739 0.736 0.736 0.735 0.734 0.734 0.733 0.733 0 0.73 0.726 0.726 0.721 0.721 0.721 0
2.201 2.193 2.193 2.185 2.147 2.147 2.139 2.139 2.132 2.117 2.117 2.11 2.11 2.11 2.102 2.102 2.095 2.095 2.095 2.095 2.095 2.095 2.095 2.095 2.095 2.088 2.088 2.074 2.06 2.06 2.046 2.033 2.033 2.019 2.019 2.006 1.993 1.993 1.993 2.012 2.046 2.046 2.088 2.088 2.139 2.177 2.177 2.225 2.283 2.283 2.326 2.326 2.344 2.353 2.353 2.353 2.353 2.353 2.353 2.353 2.353 2.362 2.362 2.362 2.362 2.362 2.362 2.362 2.335 2.335 2.3 2.258 2.258 2.209 2.209 0 2.067 2.067 2.019 1.98 1.98 1.955 1.942 1.942 1.936 1.936 1.924 1.924 1.924 1.924 1.924 1.924 1.912 1.912 1.912 1.912 1.912 1.906 1.906 1.906 1.906 1.906 1.906 1.906 1.906 1.906 1.906 1.918 1.918 1.924 1.924 1.93 1.942 1.942 1.955 1.967 1.967 1.986 2.006 2.006 2.026 2.026 2.06 2.081 2.081 2.095 2.124 2.124 2.169 2.169 2.217 2.274 2.274 2.326 2.38 2.38 2.437 2.437 2.497 2.528 2.528 2.539 2.539 2.539 2.549 2.549 2.539 2.539 2.539 2.539 2.539 2.539 2.539 2.539 2.549 2.549 2.549 2.549 2.549 2.549 2.549 2.549 2.539 2.539 2.539 2.528 2.528 2.518 2.507 2.507 2.507 2.507 2.507 2.487 2.487 2.467 2.447 2.447 2.409 2.409 2.371 2.326 2.326 2.283 2.241 2.241 2.209 2.209 2.193 2.193 2.193 2.193 2.193 2.225 2.225 2.249 2.249 2.283 2.326 2.326 2.371 2.409 2.409 2.437 2.437 2.467 2.477 2.477 2.487 2.487 2.487 2.487 2.487 2.477 2.477 2.457 2.457 2.457 2.437 2.428 2.428 2.428 2.428 2.418 2.409 2.409 2.409 2.409 2.409 2.409 2.409 2.409 2.409 2.409 2.409 2.409 2.418 2.418 2.428 2.428 2.437 2.447 2.447 2.457 2.467 2.467 2.477 2.477 2.467 2.467 2.447 2.447 2.447 2.437 2.437 2.437 2.437 2.447 2.447 2.457 2.477 2.477 2.507 2.528 2.528 2.56 2.56 2.581 2.592 2.592 2.592 2.592 2.581 2.581 2.581 2.56 2.56 2.549 2.539 2.539 2.518 2.518 2.507 2.497 2.497 2.487 2.477 2.477 2.477 2.477 2.467 2.457 2.457 2.457 0 0 0 0 0 0 0 0 0 0 0 0 0 0 0 0 0 0 0 0 0 0 0 0 0 0 0 0 0 0 0 0 0 0 0 0 0 0 0 0 0 0 0 0 0 0 0 0 0 0 0 0 0 0 0 0 0 0 0 0 0 0 0 0 0 0 0 0 0 0 0 0 0 0 0 0 0 0 0 0 0 0 0 0 0 0 0 0 0 0 0 0 0 0 0 0 0 0 0 0 0 0 0 0 0 0 0 0 0 0 0 0 0 0 0 0 0 0 0 0 0 0 0 0 0 0 0 0 0 0 0 0 0 0 0 0 0 0 0 0 0 0 0 0 0 0 0 0 0 0 0 0 0 0 0 0 0 0 0 0 0 0 0 0 0 0 0 0 0 0 0 0.736 0.736 0.735 0.735 0 0 0 0 0 0 0 0 0 0 0
2.201 2.193 2.193 2.185 2.169 2.169 2.162 2.162 2.147 2.139 2.139 2.132 2.132 2.132 2.132 2.132 2.124 2.124 2.124 2.124 2.117 2.117 2.117 2.117 2.117 2.102 2.102 2.088 2.081 2.081 2.06 2.046 2.046 2.033 2.033 2.012 2.006 2.006 2.006 2.026 2.06 2.06 2.095 2.095 2.139 2.177 2.177 2.225 2.283 2.283 2.326 2.326 2.344 2.353 2.353 2.353 2.353 2.353 2.353 2.353 2.353 2.362 2.362 2.362 2.362 2.362 2.362 2.362 2.335 2.335 2.3 2.258 2.258 2.209 2.201 2.201 2.102 2.102 2.053 2.012 2.012 1.98 1.961 1.961 1.948 1.948 1.936 1.936 1.936 1.93 1.93 1.93 1.924 1.924 1.924 1.918 1.918 1.918 1.912 1.912 1.912 1.912 1.912 1.912 1.912 1.912 1.918 1.93 1.93 1.936 1.936 1.942 1.955 1.955 1.973 1.993 1.993 2.012 2.033 2.033 2.046 2.046 2.06 2.081 2.081 2.095 2.124 2.124 2.169 2.169 2.217 2.274 2.274 2.326 2.399 2.399 2.457 2.457 2.507 2.539 2.539 2.549 2.56 2.56 2.56 2.56 2.549 2.549 2.549 2.549 2.549 2.549 2.549 2.549 2.56 2.56 2.56 2.56 2.56 2.56 2.549 2.549 2.549 2.549 2.549 2.539 2.539 2.528 2.528 2.528 2.518 2.518 2.518 2.507 2.507 2.487 2.467 2.467 2.428 2.428 2.39 2.344 2.344 2.283 2.241 2.241 2.209 2.209 2.193 2.193 2.193 2.193 2.193 2.225 2.225 2.249 2.249 2.309 2.353 2.353 2.39 2.437 2.437 2.457 2.457 2.477 2.487 2.487 2.487 2.487 2.487 2.487 2.487 2.477 2.477 2.457 2.457 2.457 2.437 2.428 2.428 2.428 2.428 2.418 2.409 2.409 2.409 2.409 2.409 2.409 2.409 2.409 2.409 2.409 2.409 2.409 2.418 2.418 2.428 2.428 2.447 2.457 2.457 2.467 2.467 2.467 2.487 2.477 2.467 2.467 2.447 2.447 2.447 2.437 2.437 2.437 2.437 2.447 2.447 2.457 2.477 2.477 2.507 2.528 2.528 2.56 2.56 2.581 2.592 2.592 2.592 2.592 2.581 2.581 2.581 2.571 2.571 2.549 2.539 2.539 2.518 2.518 2.507 2.497 2.497 2.487 2.477 2.477 2.477 2.477 2.467 2.457 2.457 2.457 0 0 0 0 0 0 0 0 0 0 0 0 0 0 0 0 0 0 0 0 0 0 0 0 0 0 0 0 0 0 0 0 0 0 0 0 0 0 0 0 0 0 0 0 0 0 0 0 0 0 0 0 0 0 0 0 0 0 0 0 0 0 0 0 0 0 0 0 0 0 0 0 0 0 0 0 0 0 0 0 0 0 0 0 0 0 0 0 0 0 0 0 0 0 0 0 0 0 0 0 0 0 0 0 0 0 0 0 0 0 0 0 0 0 0 0 0 0 0 0 0 0 0 0 0 0 0 0 0 0 0 0 0 0 0 0 0 0 0 0 0 0 0 0 0 0 0 0 0 0 0 0 0 0 0 0 0 0 0 0 0 0 0 0 0 0 0 0 0 0 0 0 0 0 0 0 0 0 0 0 0 0 0 0 0 0
2.209 2.209 2.209 2.201 2.193 2.193 2.185 2.185 2.177 2.169 2.169 2.162 2.154 2.154 2.154 2.154 2.147 2.147 2.147 2.147 2.147 2.147 2.139 2.139 2.139 2.124 2.124 2.11 2.095 2.095 2.081 2.06 2.06 2.039 2.039 2.026 2.019 2.019 2.019 2.033 2.067 2.067 2.102 2.102 2.147 2.193 2.193 2.241 2.291 2.291 2.335 2.335 2.362 2.362 2.362 2.362 2.371 2.362 2.362 2.362 2.371 2.371 2.371 2.38 2.38 2.38 2.38 2.38 2.362 2.362 2.335 2.3 2.3 2.249 2.201 2.201 2.139 2.139 2.088 2.046 2.046 2.012 1.986 1.986 1.967 1.967 1.955 1.948 1.948 1.942 1.936 1.936 1.93 1.93 1.93 1.93 1.93 1.924 1.924 1.924 1.924 1.924 1.918 1.918 1.924 1.924 1.93 1.942 1.942 1.948 1.948 1.961 1.973 1.973 1.993 2.012 2.012 2.033 2.053 2.053 2.067 2.067 2.081 2.095 2.095 2.102 2.139 2.139 2.177 2.177 2.233 2.283 2.283 2.335 2.399 2.399 2.457 2.457 2.507 2.539 2.539 2.549 2.56 2.56 2.56 2.56 2.549 2.549 2.549 2.549 2.549 2.549 2.549 2.549 2.56 2.56 2.56 2.56 2.56 2.56 2.549 2.549 2.549 2.549 2.549 2.539 2.539 2.528 2.528 2.528 2.518 2.518 2.518 2.507 2.507 2.487 2.467 2.467 2.428 2.428 2.39 2.344 2.344 2.3 2.258 2.258 2.225 2.225 2.209 2.209 2.217 2.217 2.225 2.249 2.249 2.274 2.274 2.309 2.353 2.353 2.39 2.437 2.437 2.457 2.457 2.477 2.487 2.487 2.487 2.487 2.487 2.487 2.487 2.477 2.477 2.457 2.447 2.447 2.437 2.428 2.428 2.418 2.418 2.418 2.409 2.409 2.409 2.409 2.409 2.409 2.409 2.409 2.409 2.409 2.409 2.409 2.418 2.418 2.428 2.428 2.447 2.457 2.457 2.467 2.467 2.467 2.487 2.477 2.467 2.467 2.447 2.447 2.447 2.437 2.437 2.437 2.437 2.447 2.447 2.457 2.477 2.477 2.497 2.528 2.528 2.56 2.56 2.581 2.592 2.592 2.592 2.592 2.581 2.581 2.581 2.56 2.56 2.549 2.539 2.539 2.518 2.518 2.507 2.497 2.497 2.487 2.477 2.477 2.477 2.477 2.467 2.457 2.457 2.447 2.447 0 0 0 0 0 0 0 0 0 0 0 0 0 0 0 0 0 0 0 0 0 0 0 0 0 0 0 0 0 0 0 0 0 0 0 0 0 0 0 0 0 0 0 0 0 0 0 0 0 0 0 0 0 0 0 0 0 0 0 0 0 0 0 0 0 0 0 0 0 0 0 0 0 0 0 0 0 0 0 0 0 0 0 0 0 0 0 0 0 0 0 0 0 0 0 0 0 0 0 0 0 0 0 0 0 0 0 0 0 0 0 0 0 0 0 0 0 0 0 0 0 0 0 0 0 0 0 0 0 0 0 0 0 0 0 0 0 0 0 0 0 0 0 0 0.578 0.578 0.577 0.577 0.577 0.576 0.576 0.576 0 0 0 0 0 0 0 0 0 0 0 0 0 0 0 0 0 0 0 0 0 0 0 0 0 0 0 0 0 0 0 0 0
2.209 2.209 2.209 2.201 2.193 2.193 2.185 2.185 2.177 2.169 2.169 2.162 2.154 2.154 2.154 2.154 2.147 2.147 2.147 2.147 2.147 2.147 2.139 2.139 2.139 2.124 2.124 2.11 2.095 2.095 2.081 2.06 2.06 2.039 2.039 2.026 2.019 2.019 2.019 2.033 2.067 2.067 2.102 2.102 2.147 2.193 2.193 2.249 2.3 2.3 2.353 2.353 2.371 2.38 2.371 2.371 2.38 2.38 2.38 2.38 2.38 2.39 2.39 2.39 2.399 2.399 2.399 2.409 2.39 2.39 2.371 2.326 2.326 2.291 2.241 2.241 2.139 2.139 2.088 2.046 2.046 2.012 1.986 1.986 1.967 1.967 1.955 1.948 1.948 1.942 1.936 1.936 1.93 1.93 1.93 1.93 1.93 1.924 1.924 1.924 1.924 1.924 1.918 1.918 1.924 1.924 1.93 1.942 1.942 1.948 1.948 1.961 1.973 1.973 1.993 2.012 2.012 2.033 2.053 2.053 2.067 2.067 2.081 2.095 2.095 2.102 2.154 2.154 2.201 2.201 2.249 2.3 2.3 2.353 2.409 2.409 2.477 2.477 2.528 2.549 2.549 2.571 2.571 2.571 2.571 2.571 2.571 2.571 2.571 2.56 2.56 2.56 2.56 2.56 2.56 2.571 2.571 2.571 2.571 2.571 2.56 2.56 2.56 2.56 2.56 2.549 2.549 2.539 2.539 2.539 2.528 2.528 2.528 2.528 2.528 2.507 2.477 2.477 2.437 2.437 2.399 2.353 2.353 2.317 2.274 2.274 2.241 2.241 2.225 2.225 2.233 2.233 2.241 2.266 2.266 2.3 2.3 2.335 2.371 2.371 2.409 2.447 2.447 2.467 2.467 2.487 2.487 2.487 2.497 2.497 2.487 2.487 2.487 2.477 2.477 2.457 2.447 2.447 2.437 2.428 2.428 2.418 2.418 2.418 2.409 2.409 2.399 2.399 2.409 2.409 2.409 2.409 2.409 2.409 2.409 2.418 2.428 2.428 2.437 2.437 2.447 2.457 2.457 2.467 2.477 2.477 2.487 2.477 2.467 2.467 2.447 2.447 2.447 2.447 2.447 2.447 2.447 2.447 2.447 2.457 2.467 2.467 2.497 2.528 2.528 2.549 2.549 2.571 2.581 2.581 2.581 2.581 2.581 2.581 2.571 2.56 2.56 2.549 2.539 2.539 2.518 2.518 2.507 2.497 2.497 2.487 2.477 2.477 2.477 2.477 2.467 2.457 2.457 2.447 2.447 0 0 0 0 0 0 0 0 0 0 0 0 0 0 0 0 0 0 0 0 0 0 0 0 0 0 0 0 0 0 0 0 0 0 0 0 0 0 0 0 0 0 0 0 0 0 0 0 0 0 0 0 0 0 0 0 0 0 0 0 0 0 0 0 0 0 0 0 0 0 0 0 0 0 0 0 0 0 0 0 0 0 0 0 0 0 0 0 0 0 0 0 0 0 0 0 0 0 0 0 0 0 0 0 0 0 0 0 0 0 0 0 0 0 0 0 0 0 0 0 0 0 0 0 0 0 0 0 0 0 0 0 0 0 0 0 0 0 0 0 0 0 0 0 0.578 0.578 0.577 0.577 0.577 0.576 0.576 0.576 0 0 0 0 0 0 0 0 0 0 0 0 0 0 0 0 0 0 0 0 0 0 0 0 0 0 0 0 0 0 0 0 0
2.225 2.225 2.225 2.217 2.209 2.209 2.201 2.201 2.201 2.193 2.193 2.185 2.177 2.177 2.177 2.177 2.169 2.169 2.169 2.169 2.162 2.162 2.162 2.162 2.162 2.147 2.147 2.132 2.11 2.11 2.095 2.074 2.074 2.053 2.053 2.039 2.026 2.026 2.026 2.039 2.074 2.074 2.11 2.11 2.154 2.201 2.201 2.249 2.3 2.3 2.353 2.353 2.371 2.38 2.371 2.371 2.38 2.38 2.38 2.38 2.38 2.39 2.39 2.39 2.399 2.399 2.399 2.409 2.39 2.39 2.371 2.326 2.326 2.291 2.241 2.241 2.193 2.193 2.147 2.095 2.095 2.053 2.026 2.026 1.999 1.999 1.98 1.967 1.967 1.955 1.948 1.948 1.942 1.942 1.942 1.936 1.936 1.936 1.93 1.93 1.93 1.93 1.93 1.93 1.936 1.936 1.942 1.955 1.955 1.961 1.961 1.973 1.993 1.993 2.006 2.026 2.026 2.053 2.067 2.067 2.081 2.081 2.095 2.11 2.11 2.117 2.154 2.154 2.201 2.201 2.249 2.3 2.3 2.353 2.409 2.409 2.487 2.487 2.539 2.571 2.571 2.581 2.581 2.581 2.581 2.581 2.581 2.581 2.571 2.571 2.571 2.571 2.571 2.571 2.571 2.581 2.581 2.581 2.581 2.581 2.571 2.571 2.571 2.571 2.571 2.56 2.56 2.549 2.549 2.549 2.549 2.549 2.549 2.539 2.539 2.518 2.487 2.487 2.447 2.447 2.399 2.353 2.353 2.317 2.274 2.274 2.241 2.241 2.225 2.225 2.233 2.233 2.241 2.266 2.266 2.3 2.3 2.335 2.371 2.371 2.437 2.467 2.467 2.477 2.477 2.487 2.497 2.497 2.497 2.497 2.487 2.487 2.487 2.477 2.477 2.457 2.447 2.447 2.437 2.428 2.428 2.418 2.418 2.418 2.409 2.409 2.399 2.399 2.409 2.409 2.409 2.409 2.409 2.409 2.409 2.418 2.428 2.428 2.437 2.437 2.447 2.467 2.467 2.477 2.477 2.477 2.487 2.477 2.467 2.467 2.457 2.447 2.447 2.447 2.447 2.447 2.447 2.447 2.447 2.457 2.467 2.467 2.497 2.528 2.528 2.549 2.549 2.571 2.581 2.581 2.581 2.581 2.581 2.581 2.571 2.56 2.56 2.549 2.539 2.539 2.518 2.518 2.507 2.497 2.497 2.487 2.487 2.487 2.477 2.477 2.467 2.457 2.457 2.447 2.447 0 0 0 0 0 0 0 0 0 0 0 0 0 0 0 0 0 0 0 0 0 0 0 0 0 0 0 0 0 0 0 0 0 0 0 0 0 0 0 0 0 0 0 0 0 0 0 0 0 0 0 0 0 0 0 0 0 0 0 0 0 0 0 0 0 0 0 0 0 0 0 0 0 0 0 0 0 0 0 0 0 0 0 0 0 0 0 0 0 0 0 0 0 0 0 0 0 0 0 0 0 0 0 0 0 0 0 0 0 0 0 0 0 0 0 0 0 0 0 0 0 0 0 0 0 0 0 0 0 0 0 0 0 0 0 0 0 0 0 0 0 0 0 0 0.577 0.577 0.577 0.577 0.577 0.576 0.576 0.576 0.576 0 0 0 0 0 0 0 0 0 0 0 0 0 0 0 0 0 0 0 0 0 0 0 0 0 0 0 0 0 0 0 0
2.233 2.233 2.233 2.225 2.225 2.225 2.217 2.217 2.217 2.209 2.209 2.201 2.201 2.201 2.193 2.193 2.193 2.193 2.193 2.185 2.185 2.185 2.185 2.185 2.185 2.169 2.169 2.154 2.132 2.132 2.11 2.095 2.095 2.067 2.067 2.053 2.039 2.039 2.039 2.046 2.081 2.081 2.117 2.117 2.162 2.209 2.209 2.249 2.309 2.309 2.353 2.353 2.38 2.39 2.39 2.39 2.39 2.39 2.39 2.39 2.399 2.399 2.399 2.409 2.418 2.418 2.418 2.418 2.418 2.418 2.39 2.371 2.371 2.326 2.291 2.291 2.241 2.241 2.193 2.147 2.147 2.102 2.067 2.067 2.039 2.039 2.012 1.967 1.967 1.955 1.948 1.948 1.942 1.942 1.942 1.936 1.936 1.936 1.93 1.93 1.93 1.93 1.93 1.93 1.936 1.936 1.942 1.967 1.967 1.98 1.98 1.993 2.006 2.006 2.026 2.039 2.039 2.06 2.081 2.081 2.095 2.095 2.102 2.117 2.117 2.139 2.169 2.169 2.217 2.217 2.266 2.317 2.317 2.371 2.428 2.428 2.487 2.487 2.539 2.571 2.571 2.581 2.581 2.581 2.581 2.581 2.581 2.581 2.571 2.571 2.571 2.571 2.571 2.571 2.571 2.581 2.581 2.581 2.581 2.581 2.571 2.571 2.571 2.571 2.571 2.56 2.56 2.549 2.549 2.549 2.549 2.549 2.549 2.539 2.539 2.518 2.487 2.487 2.447 2.447 2.409 2.362 2.362 2.326 2.274 2.274 2.241 2.241 2.241 2.241 2.249 2.249 2.266 2.291 2.291 2.317 2.317 2.353 2.39 2.39 2.437 2.467 2.467 2.477 2.477 2.487 2.497 2.497 2.497 2.497 2.487 2.487 2.487 2.467 2.467 2.457 2.447 2.447 2.437 2.428 2.428 2.418 2.418 2.418 2.399 2.399 2.399 2.399 2.399 2.399 2.409 2.409 2.409 2.409 2.409 2.418 2.428 2.428 2.437 2.437 2.447 2.467 2.467 2.477 2.477 2.477 2.487 2.477 2.467 2.467 2.457 2.447 2.447 2.447 2.447 2.447 2.447 2.447 2.447 2.457 2.467 2.467 2.497 2.528 2.528 2.549 2.549 2.56 2.571 2.571 2.571 2.571 2.571 2.571 2.571 2.549 2.549 2.549 2.528 2.528 2.518 2.518 2.507 2.497 2.497 2.487 2.487 2.487 2.477 2.477 2.467 2.457 2.457 2.437 2.437 0 0 0 0 0 0 0 0 0 0 0 0 0 0 0 0 0 0 0 0 0 0 0 0 0 0 0 0 0 0 0 0 0 0 0 0 0 0 0 0 0 0 0 0 0 0 0 0 0 0 0 0 0 0 0 0 0 0 0 0 0 0 0 0 0 0 0 0 0 0 0 0 0 0 0 0 0 0 0 0 0 0 0 0 0 0 0 0 0 0 0 0 0 0 0 0 0 0 0 0 0 0 0 0 0 0 0 0 0 0 0 0 0 0 0 0 0 0 0 0 0 0 0 0 0 0 0 0 0 0 0 0 0 0 0 0 0 0 0 0 0 0.578 0.578 0.578 0.577 0.577 0.577 0.577 0.577 0.576 0.576 0.575 0.574 0.574 0.572 0.572 0.572 0 0 0 0 0 0 0 0 0 0 0 0 0 0 0 0 0 0 0 0 0 0 0 0 0 0 0 0
2.233 2.233 2.233 2.225 2.225 2.225 2.217 2.217 2.217 2.209 2.209 2.201 2.201 2.201 2.193 2.193 2.193 2.193 2.193 2.185 2.185 2.185 2.185 2.185 2.185 2.169 2.169 2.154 2.132 2.132 2.11 2.095 2.095 2.067 2.067 2.053 2.039 2.039 2.039 2.046 2.081 2.081 2.117 2.117 2.162 2.209 2.209 2.249 2.317 2.317 2.362 2.362 2.39 2.399 2.399 2.399 2.399 2.399 2.399 2.399 2.409 2.409 2.409 2.418 2.428 2.428 2.428 2.437 2.437 2.437 2.428 2.399 2.399 2.371 2.335 2.335 2.241 2.241 2.193 2.147 2.147 2.102 2.067 2.067 2.039 2.039 2.012 1.993 1.993 1.98 1.967 1.967 1.961 1.961 1.955 1.948 1.948 1.948 1.942 1.942 1.942 1.942 1.942 1.942 1.948 1.948 1.955 1.967 1.967 1.98 1.98 1.993 2.006 2.006 2.026 2.039 2.039 2.06 2.081 2.081 2.095 2.095 2.102 2.117 2.117 2.139 2.169 2.169 2.217 2.217 2.274 2.326 2.326 2.38 2.447 2.447 2.497 2.497 2.549 2.571 2.571 2.581 2.581 2.581 2.592 2.592 2.581 2.581 2.581 2.581 2.581 2.581 2.581 2.581 2.581 2.581 2.581 2.592 2.592 2.592 2.581 2.581 2.581 2.581 2.581 2.571 2.571 2.571 2.56 2.56 2.56 2.56 2.56 2.549 2.549 2.528 2.497 2.497 2.467 2.467 2.418 2.371 2.371 2.335 2.291 2.291 2.258 2.258 2.249 2.249 2.258 2.258 2.274 2.3 2.3 2.335 2.335 2.362 2.399 2.399 2.447 2.477 2.477 2.487 2.487 2.497 2.497 2.497 2.497 2.497 2.487 2.487 2.487 2.467 2.467 2.457 2.447 2.447 2.437 2.428 2.428 2.418 2.418 2.418 2.399 2.399 2.399 2.399 2.399 2.399 2.409 2.409 2.409 2.409 2.409 2.418 2.428 2.428 2.437 2.437 2.457 2.467 2.467 2.477 2.487 2.487 2.497 2.477 2.467 2.467 2.457 2.447 2.447 2.447 2.447 2.447 2.447 2.447 2.447 2.457 2.467 2.467 2.497 2.518 2.518 2.539 2.539 2.56 2.56 2.56 2.571 2.571 2.56 2.56 2.56 2.549 2.549 2.539 2.528 2.528 2.518 2.518 2.507 2.497 2.497 2.487 2.487 2.487 2.477 2.477 2.467 2.457 2.457 2.437 2.437 0 0 0 0 0 0 0 0 0 0 0 0 0 0 0 0 0 0 0 0 0 0 0 0 0 0 0 0 0 0 0 0 0 0 0 0 0 0 0 0 0 0 0 0 0 0 0 0 0 0 0 0 0 0 0 0 0 0 0 0 0 0 0 0 0 0 0 0 0 0 0 0 0 0 0 0 0 0 0 0 0 0 0 0 0 0 0 0 0 0 0 0 0 0 0 0 0 0 0 0 0 0 0 0 0 0 0 0 0 0 0 0 0 0 0 0 0 0 0 0 0 0 0 0 0 0 0 0 0 0 0 0 0 0 0 0 0 0 0 0 0 0.578 0.578 0.578 0.578 0.577 0.577 0.577 0.577 0.576 0.576 0.575 0.574 0.574 0.572 0.572 0.572 0 0 0 0 0 0 0 0 0 0 0 0 0 0 0 0 0 0 0 0 0 0 0 0 0 0 0 0
2.241 2.233 2.233 2.233 2.225 2.225 2.225 2.225 2.217 2.217 2.217 2.217 2.209 2.209 2.209 2.209 2.209 2.209 2.209 2.209 2.201 2.201 2.201 2.193 2.193 2.185 2.185 2.169 2.147 2.147 2.124 2.102 2.102 2.081 2.081 2.06 2.039 2.039 2.039 2.053 2.088 2.088 2.124 2.124 2.162 2.217 2.217 2.258 2.317 2.317 2.362 2.362 2.39 2.399 2.399 2.399 2.399 2.399 2.399 2.399 2.409 2.409 2.409 2.418 2.428 2.428 2.428 2.437 2.437 2.437 2.428 2.399 2.399 2.371 2.335 2.335 2.291 2.291 2.249 2.201 2.201 2.201 2.11 2.11 2.074 2.074 2.046 2.026 2.026 2.006 1.986 1.986 1.973 1.973 1.961 1.961 1.961 1.955 1.955 1.955 1.955 1.955 1.955 1.955 1.961 1.961 1.967 1.98 1.98 1.993 1.993 2.012 2.019 2.019 2.033 2.053 2.053 2.074 2.095 2.095 2.102 2.102 2.117 2.124 2.124 2.147 2.185 2.185 2.225 2.225 2.274 2.326 2.326 2.38 2.447 2.447 2.497 2.497 2.549 2.571 2.571 2.592 2.592 2.592 2.592 2.592 2.592 2.592 2.592 2.592 2.592 2.592 2.592 2.592 2.592 2.592 2.592 2.592 2.592 2.592 2.592 2.592 2.592 2.592 2.592 2.581 2.581 2.581 2.571 2.571 2.571 2.571 2.571 2.56 2.56 2.528 2.497 2.497 2.467 2.467 2.418 2.371 2.371 2.335 2.291 2.291 2.258 2.258 2.249 2.249 2.258 2.258 2.274 2.3 2.3 2.335 2.335 2.362 2.399 2.399 2.447 2.477 2.477 2.487 2.487 2.497 2.497 2.497 2.497 2.497 2.487 2.477 2.477 2.467 2.467 2.457 2.447 2.447 2.437 2.418 2.418 2.418 2.418 2.409 2.399 2.399 2.39 2.39 2.399 2.399 2.399 2.399 2.399 2.409 2.409 2.418 2.428 2.428 2.437 2.437 2.457 2.467 2.467 2.477 2.487 2.487 2.497 2.477 2.467 2.467 2.457 2.457 2.457 2.447 2.447 2.447 2.447 2.447 2.447 2.457 2.467 2.467 2.497 2.518 2.518 2.539 2.539 2.56 2.56 2.56 2.571 2.571 2.56 2.56 2.56 2.549 2.549 2.539 2.528 2.528 2.518 2.518 2.507 2.497 2.497 2.487 2.487 2.487 2.477 2.477 2.467 2.457 2.457 2.437 2.437 0 0 0 0 0 0 0 0 0 0 0 0 0 0 0 0 0 0 0 0 0 0 0 0 0 0 0 0 0 0 0 0 0 0 0 0 0 0 0 0 0 0 0 0 0 0 0 0 0 0 0 0 0 0 0 0 0 0 0 0 0 0 0 0 0 0 0 0 0 0 0 0 0 0 0 0 0 0 0 0 0 0 0 0 0 0 0 0 0 0 0 0 0 0 0 0 0 0 0 0 0 0 0 0 0 0 0 0 0 0 0 0 0 0 0 0 0 0 0 0 0 0 0 0 0 0 0 0 0 0 0 0 0 0 0 0 0 0 0.574 0.574 0.574 0.576 0.577 0.577 0.577 0.577 0.576 0.576 0.576 0.576 0.576 0.575 0.574 0.574 0.572 0.572 0.572 0 0 0 0 0 0 0 0 0 0 0 0 0 0 0 0 0 0 0 0 0 0 0 0 0 0 0 0
2.241 2.241 2.241 2.241 2.233 2.233 2.233 2.233 2.225 2.225 2.225 2.225 2.225 2.225 2.225 2.217 2.217 2.217 2.217 2.217 2.209 2.209 2.209 2.209 2.209 2.201 2.201 2.185 2.162 2.162 2.139 2.11 2.11 2.081 2.081 2.06 2.039 2.039 2.039 2.053 2.088 2.088 2.132 2.132 2.169 2.225 2.225 2.266 2.326 2.326 2.38 2.38 2.409 2.409 2.409 2.409 2.409 2.409 2.418 2.418 2.418 2.428 2.428 2.437 2.437 2.437 2.447 2.447 2.447 2.447 2.447 2.428 2.428 2.399 2.38 2.38 2.335 2.335 2.3 2.258 2.258 2.209 2.162 2.162 2.124 2.124 2.046 2.026 2.026 2.006 1.986 1.986 1.973 1.973 1.961 1.961 1.961 1.955 1.955 1.955 1.955 1.955 1.955 1.955 1.961 1.961 1.967 1.98 1.98 1.993 1.993 2.012 2.019 2.019 2.053 2.074 2.074 2.088 2.102 2.102 2.117 2.117 2.124 2.132 2.132 2.154 2.193 2.193 2.241 2.241 2.291 2.344 2.344 2.399 2.457 2.457 2.518 2.518 2.56 2.581 2.581 2.592 2.592 2.592 2.592 2.592 2.592 2.592 2.592 2.592 2.592 2.592 2.592 2.592 2.592 2.592 2.592 2.592 2.592 2.592 2.592 2.592 2.592 2.592 2.592 2.581 2.581 2.581 2.571 2.571 2.571 2.571 2.571 2.56 2.56 2.539 2.507 2.507 2.477 2.477 2.428 2.39 2.39 2.344 2.3 2.3 2.266 2.266 2.266 2.266 2.274 2.274 2.291 2.309 2.309 2.344 2.344 2.38 2.418 2.418 2.457 2.487 2.487 2.497 2.497 2.497 2.497 2.497 2.497 2.497 2.487 2.477 2.477 2.467 2.467 2.447 2.447 2.447 2.437 2.418 2.418 2.418 2.418 2.409 2.399 2.399 2.39 2.39 2.39 2.39 2.39 2.39 2.399 2.399 2.399 2.409 2.418 2.418 2.437 2.437 2.447 2.467 2.467 2.477 2.487 2.487 2.487 2.477 2.467 2.467 2.457 2.457 2.457 2.447 2.447 2.447 2.447 2.447 2.447 2.457 2.467 2.467 2.487 2.507 2.507 2.528 2.528 2.539 2.549 2.549 2.56 2.56 2.549 2.549 2.549 2.549 2.549 2.539 2.528 2.528 2.518 2.518 2.507 2.497 2.497 2.487 2.487 2.487 2.477 2.477 2.467 2.457 2.457 2.437 2.437 0 0 0 0 0 0 0 0 0 0 0 0 0 0 0 0 0 0 0 0 0 0 0 0 0 0 0 0 0 0 0 0 0 0 0 0 0 0 0 0 0 0 0 0 0 0 0 0 0 0 0 0 0 0 0 0 0 0 0 0 0 0 0 0 0 0 0 0 0 0 0 0 0 0 0 0 0 0 0 0 0 0 0 0 0 0 0 0 0 0 0 0 0 0 0 0 0 0 0 0 0 0 0 0 0 0 0 0 0 0 0 0 0 0 0 0 0 0 0 0 0 0 0 0 0 0 0 0 0 0 0 0 0 0 0 0 0 0 0.574 0.574 0.574 0.576 0.577 0.577 0.577 0.577 0.576 0.576 0.576 0.576 0.576 0.575 0.574 0.574 0.572 0.572 0.572 0 0 0 0 0 0 0 0 0 0 0 0 0 0 0 0 0 0 0 0 0 0 0 0 0 0 0 0
2.241 2.241 2.241 2.241 2.233 2.233 2.233 2.233 2.225 2.225 2.225 2.225 2.225 2.225 2.225 2.217 2.217 2.217 2.217 2.217 2.209 2.209 2.209 2.209 2.209 2.201 2.201 2.185 2.162 2.162 2.139 2.11 2.11 2.088 2.088 2.067 2.046 2.046 2.046 2.06 2.088 2.088 2.132 2.132 2.169 2.225 2.225 2.266 2.326 2.326 2.38 2.38 2.409 2.418 2.418 2.418 2.428 2.428 2.428 2.428 2.428 2.437 2.437 2.447 2.447 2.447 2.457 2.457 2.457 2.457 2.457 2.457 2.457 2.428 2.418 2.418 2.335 2.335 2.3 2.258 2.258 2.209 2.162 2.162 2.124 2.124 2.088 2.053 2.053 2.026 2.006 2.006 1.986 1.986 1.973 1.967 1.967 1.967 1.967 1.967 1.967 1.967 1.967 1.967 1.967 1.967 1.98 1.993 1.993 2.006 2.006 2.026 2.039 2.039 2.053 2.074 2.074 2.088 2.102 2.102 2.117 2.117 2.124 2.132 2.132 2.154 2.193 2.193 2.241 2.241 2.291 2.353 2.353 2.409 2.467 2.467 2.518 2.518 2.571 2.581 2.581 2.592 2.592 2.592 2.603 2.603 2.603 2.603 2.603 2.603 2.603 2.603 2.603 2.603 2.603 2.603 2.603 2.603 2.603 2.603 2.603 2.603 2.603 2.603 2.592 2.592 2.592 2.592 2.592 2.592 2.581 2.581 2.581 2.571 2.571 2.549 2.518 2.518 2.487 2.487 2.437 2.399 2.399 2.353 2.309 2.309 2.283 2.283 2.283 2.283 2.291 2.291 2.309 2.326 2.326 2.362 2.362 2.399 2.428 2.428 2.467 2.487 2.487 2.497 2.497 2.497 2.497 2.497 2.497 2.497 2.487 2.477 2.477 2.467 2.467 2.447 2.447 2.447 2.437 2.428 2.428 2.418 2.418 2.409 2.399 2.399 2.39 2.39 2.39 2.39 2.39 2.39 2.399 2.399 2.399 2.409 2.418 2.418 2.437 2.437 2.447 2.467 2.467 2.477 2.487 2.487 2.487 2.477 2.467 2.467 2.457 2.457 2.457 2.447 2.447 2.447 2.447 2.447 2.447 2.457 2.467 2.467 2.487 2.507 2.507 2.528 2.528 2.539 2.539 2.539 2.549 2.549 2.549 2.549 2.539 2.539 2.539 2.528 2.528 2.528 2.518 2.518 2.507 2.497 2.497 2.497 2.487 2.487 2.477 2.477 2.477 2.457 2.457 2.457 0 0 0 0 0 0 0 0 0 0 0 0 0 0 0 0 0 0 0 0 0 0 0 0 0 0 0 0 0 0 0 0 0 0 0 0 0 0 0 0 0 0 0 0 0 0 0 0 0 0 0 0 0 0 0 0 0 0 0 0 0 0 0 0 0 0 0 0 0 0 0 0 0 0 0 0 0 0 0 0 0 0 0 0 0 0 0 0 0 0 0 0 0 0 0 0 0 0 0 0 0 0 0 0 0 0 0 0 0 0 0 0 0 0 0 0 0 0 0 0 0 0 0 0 0 0 0 0 0 0 0 0 0 0 0 0 0 0 0 0.572 0.572 0.572 0.574 0.576 0.576 0.576 0.576 0.576 0.576 0.575 0.575 0.575 0.575 0.574 0.574 0.572 0.572 0.572 0 0 0 0 0 0 0 0 0 0 0 0 0 0 0 0 0 0 0 0 0 0 0 0 0 0 0 0
2.249 2.249 2.249 2.249 2.241 2.241 2.241 2.241 2.241 2.233 2.233 2.233 2.233 2.233 2.233 2.233 2.233 2.225 2.225 2.225 2.225 2.225 2.217 2.217 2.217 2.209 2.209 2.193 2.169 2.169 2.147 2.124 2.124 2.102 2.102 2.074 2.06 2.06 2.06 2.074 2.102 2.102 2.139 2.139 2.185 2.233 2.233 2.283 2.335 2.335 2.39 2.39 2.409 2.418 2.418 2.418 2.428 2.428 2.428 2.428 2.428 2.437 2.437 2.447 2.447 2.447 2.457 2.457 2.457 2.457 2.457 2.457 2.457 2.428 2.418 2.418 2.39 2.39 2.353 2.317 2.317 2.274 2.217 2.217 2.169 2.169 2.132 2.088 2.088 2.053 2.026 2.026 1.999 1.999 1.986 1.98 1.98 1.967 1.967 1.973 1.973 1.973 1.973 1.98 1.98 1.98 1.993 2.006 2.006 2.019 2.019 2.039 2.053 2.053 2.067 2.081 2.081 2.095 2.11 2.11 2.124 2.124 2.124 2.139 2.139 2.162 2.201 2.201 2.249 2.249 2.3 2.353 2.353 2.409 2.467 2.467 2.518 2.518 2.571 2.581 2.581 2.592 2.592 2.592 2.603 2.603 2.603 2.603 2.603 2.603 2.603 2.603 2.603 2.603 2.603 2.603 2.603 2.603 2.603 2.603 2.603 2.603 2.603 2.603 2.592 2.592 2.592 2.592 2.592 2.592 2.581 2.581 2.581 2.571 2.571 2.549 2.518 2.518 2.487 2.487 2.437 2.399 2.399 2.353 2.309 2.309 2.283 2.283 2.283 2.283 2.291 2.291 2.309 2.326 2.326 2.362 2.362 2.399 2.428 2.428 2.467 2.487 2.487 2.497 2.497 2.497 2.497 2.497 2.487 2.487 2.477 2.477 2.477 2.467 2.467 2.447 2.437 2.437 2.437 2.428 2.428 2.418 2.418 2.409 2.399 2.399 2.39 2.39 2.39 2.39 2.39 2.39 2.39 2.399 2.399 2.409 2.418 2.418 2.437 2.437 2.447 2.467 2.467 2.477 2.487 2.487 2.487 2.477 2.467 2.467 2.457 2.457 2.457 2.447 2.447 2.447 2.447 2.447 2.447 2.457 2.467 2.467 2.487 2.507 2.507 2.518 2.518 2.539 2.539 2.539 2.549 2.549 2.549 2.549 2.539 2.539 2.539 2.528 2.528 2.528 2.518 2.518 2.507 2.497 2.497 2.497 2.487 2.487 2.477 2.477 2.477 2.457 2.457 2.457 0 0 0 0 0 0 0 0 0 0 0 0 0 0 0 0 0 0 0 0 0 0 0 0 0 0 0 0 0 0 0 0 0 0 0 0 0 0 0 0 0 0 0 0 0 0 0 0 0 0 0 0 0 0 0 0 0 0 0 0 0 0 0 0 0 0 0 0 0 0 0 0 0 0 0 0 0 0 0 0 0 0 0 0 0 0 0 0 0 0 0 0 0 0 0 0 0 0 0 0 0 0 0 0 0 0 0 0 0 0 0 0 0 0 0 0 0 0 0 0 0 0 0 0 0 0 0 0 0 0 0 0 0 0 0 0 0 0 0.568 0.568 0.571 0.571 0.573 0.574 0.574 0.575 0.575 0.575 0.576 0.575 0.574 0.574 0.574 0.573 0.573 0.571 0.571 0.571 0 0 0 0 0 0 0 0 0 0 0 0 0 0 0 0 0 0 0 0 0 0 0 0 0 0 0 0
2.258 2.258 2.258 2.258 2.258 2.258 2.249 2.249 2.249 2.249 2.249 2.241 2.241 2.241 2.241 2.233 2.233 2.233 2.233 2.233 2.233 2.233 2.233 2.225 2.225 2.225 2.225 2.209 2.169 2.169 2.147 2.124 2.124 2.102 2.102 2.074 2.06 2.06 2.06 2.074 2.102 2.102 2.139 2.139 2.193 2.241 2.241 2.291 2.344 2.344 2.399 2.399 2.418 2.428 2.428 2.428 2.428 2.428 2.437 2.437 2.437 2.447 2.447 2.447 2.457 2.457 2.457 2.467 2.467 2.467 2.467 2.467 2.477 2.457 2.447 2.447 2.428 2.428 2.399 2.362 2.362 2.335 2.274 2.274 2.225 2.225 2.132 2.088 2.088 2.053 2.026 2.026 1.999 1.999 1.986 1.98 1.98 1.967 1.967 1.973 1.973 1.973 1.973 1.98 1.98 1.98 1.993 2.006 2.006 2.019 2.019 2.039 2.053 2.053 2.067 2.081 2.081 2.095 2.11 2.11 2.124 2.124 2.132 2.139 2.139 2.169 2.217 2.217 2.258 2.258 2.309 2.362 2.362 2.418 2.477 2.477 2.528 2.528 2.571 2.592 2.592 2.603 2.603 2.603 2.603 2.603 2.603 2.614 2.614 2.614 2.614 2.614 2.614 2.614 2.614 2.614 2.614 2.614 2.614 2.614 2.614 2.614 2.614 2.614 2.603 2.603 2.603 2.603 2.592 2.592 2.592 2.592 2.592 2.581 2.581 2.56 2.528 2.528 2.497 2.497 2.447 2.409 2.409 2.362 2.326 2.326 2.3 2.3 2.3 2.3 2.309 2.309 2.326 2.353 2.353 2.38 2.38 2.409 2.447 2.447 2.477 2.497 2.497 2.497 2.497 2.497 2.497 2.487 2.477 2.477 2.477 2.467 2.467 2.457 2.457 2.447 2.437 2.437 2.437 2.428 2.428 2.418 2.418 2.409 2.399 2.399 2.39 2.39 2.39 2.39 2.39 2.39 2.39 2.399 2.399 2.409 2.418 2.418 2.437 2.437 2.447 2.467 2.467 2.477 2.487 2.487 2.487 2.477 2.467 2.467 2.457 2.457 2.457 2.447 2.447 2.447 2.447 2.447 2.447 2.457 2.467 2.467 2.487 2.507 2.507 2.518 2.518 2.528 2.539 2.539 2.539 2.539 2.539 2.539 2.539 2.539 2.539 2.528 2.518 2.518 2.518 2.518 2.507 2.497 2.497 2.487 2.487 2.487 2.487 0 0 0 0 0 0 0 0 0 0 0 0 0 0 0 0 0 0 0 0 0 0 0 0 0 0 0 0 0 0 0 0 0 0 0 0 0 0 0 0 0 0 0 0 0 0 0 0 0 0 0 0 0 0 0 0 0 0 0 0 0 0 0 0 0 0 0 0 0 0 0 0 0 0 0 0 0 0 0 0 0 0 0 0 0 0 0 0 0 0 0 0 0 0 0 0 0 0 0 0 0 0 0 0 0 0 0 0 0 0 0 0 0 0 0 0 0 0 0 0 0 0 0 0 0 0 0 0 0 0 0 0 0 0 0 0 0 0 0 0 0 0 0 0.568 0.568 0.571 0.571 0.573 0.574 0.574 0.575 0.575 0.575 0.576 0.575 0.574 0.574 0.574 0.573 0.573 0.571 0.571 0.571 0 0 0 0 0 0 0 0 0 0 0 0 0 0 0 0 0 0 0 0 0 0 0 0 0 0 0 0
2.258 2.258 2.258 2.258 2.258 2.258 2.249 2.249 2.249 2.249 2.249 2.241 2.241 2.241 2.241 2.233 2.233 2.233 2.233 2.233 2.233 2.233 2.233 2.225 2.225 2.225 2.225 2.209 2.185 2.185 2.162 2.139 2.139 2.117 2.117 2.095 2.081 2.081 2.081 2.088 2.117 2.117 2.154 2.154 2.193 2.241 2.241 2.291 2.344 2.344 2.399 2.399 2.418 2.428 2.428 2.428 2.428 2.428 2.437 2.437 2.437 2.447 2.447 2.447 2.457 2.457 2.457 2.467 2.467 2.467 2.467 2.467 2.477 2.457 2.447 2.447 2.428 2.428 2.399 2.362 2.362 2.335 2.274 2.274 2.225 2.225 2.177 2.132 2.132 2.088 2.053 2.053 2.019 2.019 1.999 1.993 1.993 1.986 1.986 1.986 1.986 1.986 1.986 1.993 1.999 1.999 2.006 2.019 2.019 2.039 2.039 2.053 2.067 2.067 2.074 2.088 2.088 2.102 2.11 2.11 2.124 2.124 2.132 2.139 2.139 2.169 2.217 2.217 2.258 2.258 2.309 2.362 2.362 2.418 2.487 2.487 2.539 2.539 2.571 2.592 2.592 2.603 2.603 2.603 2.603 2.603 2.614 2.614 2.614 2.614 2.614 2.614 2.626 2.626 2.626 2.626 2.626 2.626 2.626 2.626 2.626 2.626 2.626 2.626 2.614 2.614 2.614 2.603 2.603 2.603 2.603 2.603 2.592 2.581 2.581 2.56 2.528 2.528 2.497 2.497 2.457 2.418 2.418 2.362 2.326 2.326 2.3 2.3 2.3 2.3 2.309 2.309 2.326 2.353 2.353 2.399 2.399 2.428 2.457 2.457 2.487 2.497 2.497 2.507 2.497 2.497 2.497 2.487 2.477 2.477 2.477 2.467 2.467 2.457 2.457 2.447 2.437 2.437 2.437 2.428 2.428 2.418 2.418 2.409 2.399 2.399 2.39 2.39 2.39 2.39 2.39 2.39 2.39 2.399 2.399 2.409 2.418 2.418 2.437 2.437 2.447 2.467 2.467 2.477 2.487 2.487 2.487 2.477 2.467 2.467 2.457 2.457 2.457 2.447 2.447 2.447 2.447 2.447 2.447 2.457 2.467 2.467 2.487 2.507 2.507 2.518 2.518 2.528 2.539 2.539 2.539 2.539 2.539 2.539 2.539 2.539 2.539 2.528 2.518 2.518 2.518 2.518 2.507 2.497 2.497 2.487 2.487 2.487 2.487 0 0 0 0 0 0 0 0 0 0 0 0 0 0 0 0 0 0 0 0 0 0 0 0 0 0 0 0 0 0 0 0 0 0 0 0 0 0 0 0 0 0 0 0 0 0 0 0 0 0 0 0 0 0 0 0 0 0 0 0 0 0 0 0 0 0 0 0 0 0 0 0 0 0 0 0 0 0 0 0 0 0 0 0 0 0 0 0 0 0 0 0 0 0 0 0 0 0 0 0 0 0 0 0 0 0 0 0 0 0 0 0 0 0 0 0 0 0 0 0 0 0 0 0 0 0 0 0 0 0 0 0 0 0 0 0 0 0 0.56 0.56 0.562 0.562 0.565 0.565 0.568 0.57 0.57 0.572 0.574 0.574 0.574 0.574 0.574 0.576 0.575 0.574 0.574 0.574 0.573 0.573 0.571 0.571 0.571 0 0 0 0 0 0 0 0 0 0 0 0 0 0 0 0 0 0 0 0 0 0 0 0 0 0 0 0
2.258 2.258 2.258 2.258 2.258 2.258 2.258 2.258 2.258 2.258 2.258 2.249 2.249 2.249 2.241 2.241 2.241 2.241 2.241 2.241 2.233 2.233 2.233 2.233 2.233 2.233 2.233 2.225 2.201 2.201 2.177 2.154 2.154 2.132 2.132 2.11 2.095 2.095 2.095 2.095 2.132 2.132 2.162 2.162 2.209 2.258 2.258 2.3 2.353 2.353 2.409 2.409 2.428 2.428 2.428 2.437 2.437 2.437 2.447 2.447 2.447 2.457 2.457 2.457 2.467 2.467 2.467 2.477 2.477 2.477 2.477 2.477 2.477 2.477 2.467 2.467 2.457 2.457 2.437 2.409 2.409 2.38 2.335 2.335 2.283 2.283 2.225 2.225 0 2.124 2.088 2.088 2.046 2.046 2.026 2.006 2.006 2.006 2.006 2.006 2.006 2.006 2.006 2.012 2.019 2.019 2.026 2.039 2.039 2.053 2.053 2.06 2.074 2.074 2.088 2.095 2.095 2.11 2.117 2.117 2.132 2.132 2.139 2.154 2.154 2.185 2.225 2.225 2.274 2.274 2.317 2.371 2.371 2.428 2.487 2.487 2.539 2.539 2.571 2.592 2.592 2.603 2.603 2.603 2.603 2.603 2.614 2.614 2.614 2.614 2.614 2.614 2.626 2.626 2.626 2.626 2.626 2.626 2.626 2.626 2.626 2.626 2.626 2.626 2.614 2.614 2.614 2.603 2.603 2.603 2.603 2.603 2.592 2.581 2.581 2.56 2.528 2.528 2.497 2.497 2.457 2.418 2.418 2.38 2.344 2.344 2.326 2.326 2.317 2.317 2.335 2.335 2.344 2.371 2.371 2.399 2.399 2.428 2.457 2.457 2.487 2.497 2.497 2.497 2.497 2.487 2.487 2.477 2.467 2.467 2.467 2.467 2.457 2.447 2.447 2.447 2.437 2.437 2.428 2.428 2.428 2.418 2.418 2.409 2.399 2.399 2.39 2.39 2.39 2.39 2.39 2.39 2.39 2.399 2.399 2.409 2.418 2.418 2.437 2.437 2.447 2.467 2.467 2.477 2.487 2.487 2.487 2.477 2.467 2.467 2.457 2.457 2.457 2.447 2.447 2.447 2.447 2.447 2.447 2.457 2.467 2.467 2.477 2.477 2.497 2.507 2.507 2.518 2.528 2.528 2.528 2.528 2.528 2.528 2.528 2.528 2.528 2.518 2.518 2.518 2.507 2.507 2.507 2.497 2.497 2.487 2.487 2.487 2.487 0 0 0 0 0 0 0 0 0 0 0 0 0 0 0 0 0 0 0 0 0 0 0 0 0 0 0 0 0 0 0 0 0 0 0 0 0 0 0 0 0 0 0 0 0 0 0 0 0 0 0 0 0 0 0 0 0 0 0 0 0 0 0 0 0 0 0 0 0 0 0 0 0 0 0 0 0 0 0 0 0 0 0 0 0 0 0 0 0 0 0 0 0 0 0 0 0 0 0 0 0 0 0 0 0 0 0 0 0 0 0 0 0 0 0 0 0 0 0 0 0 0 0 0 0 0 0 0 0 0 0 0 0 0 0 0 0 0 0.56 0.56 0.562 0.562 0.565 0.565 0.568 0.569 0.569 0.57 0.572 0.572 0.573 0.573 0.574 0.574 0.574 0.573 0.573 0.573 0.573 0.572 0.57 0.57 0.57 0 0 0 0 0 0 0 0 0 0 0 0 0 0 0 0 0 0 0 0 0 0 0 0 0 0 0 0
2.258 2.258 2.258 2.258 2.258 2.258 2.258 2.258 2.258 2.258 2.258 2.249 2.249 2.249 2.241 2.241 2.241 2.241 2.241 2.241 2.233 2.233 2.233 2.233 2.233 2.233 2.233 2.225 2.201 2.201 2.177 2.154 2.154 2.132 2.132 2.11 2.095 2.095 2.095 2.095 2.132 2.132 2.162 2.162 2.209 2.258 2.258 2.309 2.362 2.362 2.409 2.409 2.428 2.437 2.437 2.437 2.447 2.447 2.447 2.447 2.457 2.457 2.457 2.467 2.477 2.477 2.477 2.477 2.477 2.487 2.487 2.487 2.487 2.487 2.487 2.487 2.477 2.477 2.467 2.447 2.447 2.418 2.38 2.38 2.326 2.326 2.225 2.225 2.225 2.124 2.088 2.088 2.046 2.046 2.026 2.006 2.006 2.006 2.006 2.006 2.006 2.006 2.006 2.012 2.019 2.019 2.026 2.039 2.039 2.053 2.053 2.06 2.074 2.074 2.088 2.095 2.095 2.11 2.117 2.117 2.132 2.132 2.139 2.154 2.154 2.185 2.233 2.233 2.283 2.283 2.326 2.38 2.38 2.437 2.487 2.487 2.539 2.539 2.581 2.592 2.592 2.603 2.603 2.603 2.614 2.614 2.614 2.614 2.614 2.626 2.626 2.626 2.626 2.626 2.637 2.637 2.637 2.637 2.637 2.637 2.637 2.637 2.637 2.637 2.626 2.614 2.614 2.614 2.614 2.614 2.614 2.614 2.603 2.592 2.592 2.571 2.539 2.539 2.507 2.507 2.467 2.428 2.428 2.39 2.353 2.353 2.335 2.335 2.335 2.335 2.344 2.344 2.362 2.39 2.39 2.418 2.418 2.447 2.467 2.467 2.487 2.497 2.497 2.497 2.487 2.477 2.477 2.467 2.467 2.467 2.457 2.457 2.447 2.447 2.447 2.447 2.437 2.437 2.428 2.428 2.428 2.418 2.418 2.409 2.409 2.409 2.39 2.39 2.39 2.39 2.39 2.39 2.39 2.399 2.399 2.409 2.418 2.418 2.437 2.437 2.457 2.467 2.467 2.477 2.487 2.487 2.497 2.477 2.477 2.477 2.457 2.457 2.457 2.457 2.457 2.447 2.447 2.447 2.447 2.457 2.467 2.467 2.477 2.477 2.497 2.507 2.507 2.507 2.518 2.518 2.528 2.528 2.518 2.518 2.518 2.518 2.518 2.507 2.507 2.507 2.507 2.507 2.497 2.497 2.497 2.487 2.487 2.487 2.487 0 0 0 0 0 0 0 0 0 0 0 0 0 0 0 0 0 0 0 0 0 0 0 0 0 0 0 0 0 0 0 0 0 0 0 0 0 0 0 0 0 0 0 0 0 0 0 0 0 0 0 0 0 0 0 0 0 0 0 0 0 0 0 0 0 0 0 0 0 0 0 0 0 0 0 0 0 0 0 0 0 0 0 0 0 0 0 0 0 0 0 0 0 0 0 0 0 0 0 0 0 0 0 0 0 0 0 0 0 0 0 0 0 0 0 0 0 0 0 0 0 0 0 0 0 0 0 0 0 0 0 0 0 0 0 0 0 0 0.56 0.56 0.562 0.562 0.565 0.565 0.566 0.569 0.569 0.57 0.572 0.572 0.573 0.573 0.574 0.574 0.574 0.573 0.573 0.573 0.573 0.572 0.57 0.57 0.57 0 0 0 0 0 0 0 0 0 0 0 0 0 0 0 0 0 0 0 0 0 0 0 0 0 0 0 0
2.258 2.258 2.258 2.258 2.266 2.266 2.258 2.258 2.258 2.258 2.258 2.249 2.249 2.249 2.249 2.241 2.241 2.241 2.241 2.241 2.241 2.241 2.241 2.241 2.241 2.233 2.233 2.233 2.217 2.217 2.193 2.169 2.169 2.147 2.147 2.124 2.117 2.117 2.117 2.117 2.147 2.147 2.185 2.185 2.217 2.266 2.266 2.309 2.362 2.362 2.409 2.409 2.428 2.437 2.437 2.437 2.447 2.447 2.447 2.447 2.457 2.457 2.457 2.467 2.477 2.477 2.477 2.477 2.477 2.487 2.487 2.487 2.487 2.487 2.487 2.487 2.477 2.477 2.467 2.447 2.447 2.418 2.38 2.38 2.326 2.326 2.266 2.225 2.225 2.169 2.124 2.124 2.081 2.081 2.06 2.039 2.039 2.039 2.039 2.039 2.039 2.039 2.039 2.039 2.046 2.046 2.053 2.06 2.06 2.074 2.074 2.088 2.095 2.095 2.102 2.11 2.11 2.117 2.124 2.124 2.132 2.132 2.147 2.162 2.162 2.193 2.233 2.233 2.283 2.283 2.326 2.38 2.38 2.437 2.487 2.487 2.539 2.539 2.581 2.592 2.592 2.603 2.603 2.603 2.614 2.614 2.614 2.626 2.626 2.626 2.637 2.637 2.637 2.637 2.637 2.648 2.648 2.648 2.648 2.648 2.648 2.648 2.637 2.637 2.637 2.626 2.626 2.626 2.626 2.626 2.614 2.614 2.614 2.603 2.603 2.581 2.549 2.549 2.518 2.518 2.467 2.428 2.428 2.39 2.353 2.353 2.335 2.335 2.335 2.335 2.344 2.344 2.362 2.39 2.39 2.418 2.418 2.447 2.477 2.477 2.497 2.497 2.497 2.497 2.487 2.477 2.477 2.467 2.467 2.467 2.457 2.457 2.447 2.447 2.447 2.437 2.437 2.437 2.428 2.428 2.428 2.418 2.418 2.409 2.399 2.399 2.39 2.39 2.39 2.39 2.39 2.39 2.39 2.399 2.399 2.409 2.418 2.418 2.437 2.437 2.457 2.467 2.467 2.477 2.487 2.487 2.497 2.477 2.477 2.477 2.467 2.457 2.457 2.457 2.457 2.457 2.447 2.447 2.447 2.457 2.467 2.467 2.477 2.477 2.497 2.507 2.507 2.507 2.518 2.518 2.528 2.528 2.518 2.518 2.518 2.518 2.518 2.507 2.507 2.507 2.507 2.507 2.497 2.497 2.497 2.497 2.487 2.487 2.487 0 0 0 0 0 0 0 0 0 0 0 0 0 0 0 0 0 0 0 0 0 0 0 0 0 0 0 0 0 0 0 0 0 0 0 0 0 0 0 0 0 0 0 0 0 0 0 0 0 0 0 0 0 0 0 0 0 0 0 0 0 0 0 0 0 0 0 0 0 0 0 0 0 0 0 0 0 0 0 0 0 0 0 0 0 0 0 0 0 0 0 0 0 0 0 0 0 0 0 0 0 0 0 0 0 0 0 0 0 0 0 0 0 0 0 0 0 0 0 0 0 0 0 0 0 0 0 0 0 0 0 0 0 0 0 0.56 0.56 0.56 0.56 0.561 0.562 0.562 0.564 0.564 0.566 0.568 0.568 0.569 0.571 0.571 0.572 0.572 0.572 0.573 0.573 0.572 0.572 0.572 0.572 0.571 0.57 0.57 0.57 0 0 0 0 0 0 0 0 0 0 0 0 0 0 0 0 0 0 0 0 0 0 0 0 0 0 0 0
2.258 2.258 2.266 2.266 2.266 2.266 2.266 2.266 2.258 2.258 2.258 2.258 2.249 2.249 2.249 2.249 2.249 2.241 2.241 2.241 2.241 2.241 2.241 2.241 2.241 2.241 2.241 2.241 2.225 2.225 2.209 2.185 2.185 2.169 2.169 2.147 2.132 2.132 2.132 2.139 2.162 2.162 2.193 2.193 2.241 2.283 2.283 2.326 2.371 2.371 2.409 2.409 2.437 2.447 2.447 2.447 2.457 2.457 2.457 2.457 2.457 2.467 2.467 2.467 2.477 2.477 2.477 2.487 2.487 2.487 2.487 2.487 2.487 2.487 2.487 2.487 2.487 2.487 2.487 2.477 2.477 2.457 2.418 2.418 2.362 2.362 2.309 2.266 2.266 2.217 2.169 2.169 2.124 2.124 2.095 2.074 2.074 2.067 2.067 2.074 2.074 2.074 2.074 2.074 2.081 2.081 2.081 2.088 2.088 2.102 2.102 2.11 2.117 2.117 2.117 2.124 2.124 2.132 2.139 2.139 2.147 2.147 2.162 2.169 2.169 2.201 2.249 2.249 2.291 2.291 2.335 2.39 2.39 2.437 2.497 2.497 2.549 2.549 2.581 2.592 2.592 2.603 2.603 2.603 2.614 2.614 2.614 2.626 2.626 2.626 2.637 2.637 2.637 2.637 2.637 2.648 2.648 2.648 2.648 2.648 2.648 2.648 2.637 2.637 2.637 2.626 2.626 2.626 2.626 2.626 2.614 2.614 2.614 2.603 2.603 2.581 2.549 2.549 2.518 2.518 2.477 2.428 2.428 2.399 2.362 2.362 2.353 2.353 2.344 2.344 2.362 2.362 2.38 2.399 2.399 2.428 2.428 2.457 2.477 2.477 2.497 2.497 2.487 2.487 2.487 2.467 2.467 2.467 2.457 2.457 2.447 2.447 2.437 2.428 2.428 2.428 2.428 2.428 2.428 2.428 2.428 2.418 2.418 2.409 2.399 2.399 2.39 2.39 2.39 2.38 2.38 2.38 2.39 2.39 2.39 2.399 2.418 2.418 2.428 2.428 2.447 2.467 2.467 2.477 2.487 2.487 2.487 2.477 2.477 2.477 2.467 2.457 2.457 2.457 2.457 2.457 2.447 2.447 2.447 2.457 2.467 2.467 2.477 2.477 2.487 2.497 2.497 2.507 2.507 2.507 2.507 2.507 2.507 2.507 2.507 2.507 2.507 2.507 2.507 2.507 2.497 2.497 2.497 2.497 2.497 2.497 2.487 2.487 2.487 2.487 2.477 2.477 2.477 2.477 2.477 0 0 0 0 0 0 0 0 0 0 0 0 0 0 0 0 0 0 0 0 0 0 0 0 0 0 0 0 0 0 0.161 0.161 0.161 0.161 0.161 0.16 0.16 0.16 0 0 0 0 0 0 0 0 0 0 0 0 0 0 0 0 0 0 0 0 0 0 0 0 0 0 0 0 0 0 0 0 0 0 0 0 0 0 0 0 0 0 0 0 0 0 0 0 0 0 0 0 0 0 0 0 0 0 0 0 0 0 0 0 0 0 0 0 0 0 0 0 0 0 0 0 0 0 0 0 0 0 0 0 0 0 0 0 0 0 0 0.56 0.56 0.56 0.56 0.561 0.562 0.562 0.564 0.564 0.566 0.568 0.568 0.569 0.571 0.571 0.572 0.572 0.572 0.573 0.573 0.572 0.572 0.572 0.572 0.571 0.57 0.57 0.57 0 0 0 0 0 0 0 0 0 0 0 0 0 0 0 0 0 0 0 0 0 0 0 0 0 0 0 0
2.258 2.258 2.258 2.258 2.258 2.266 2.266 2.266 2.258 2.258 2.258 2.258 2.249 2.249 2.249 2.249 2.249 2.241 2.241 2.241 2.241 2.241 2.241 2.241 2.241 2.241 2.241 2.241 2.225 2.225 2.209 2.185 2.185 2.169 2.169 2.147 2.132 2.132 2.132 2.139 2.162 2.162 2.193 2.193 2.241 2.283 2.283 2.326 2.371 2.371 2.418 2.418 2.447 2.447 2.447 2.457 2.457 2.457 2.467 2.467 2.467 2.467 2.467 2.477 2.477 2.477 2.487 2.487 2.487 2.497 2.497 2.497 2.507 2.507 2.507 2.507 2.507 2.507 2.507 2.497 2.497 2.487 2.457 2.457 2.399 2.399 2.309 2.266 2.266 2.217 2.169 2.169 2.124 2.124 2.095 2.074 2.074 2.067 2.067 2.074 2.074 2.074 2.074 2.074 2.081 2.081 2.081 2.088 2.088 2.102 2.102 2.11 2.117 2.117 2.117 2.124 2.124 2.132 2.139 2.139 2.147 2.147 2.162 2.169 2.169 2.201 2.249 2.249 2.3 2.3 2.353 2.399 2.399 2.447 2.507 2.507 2.549 2.549 2.581 2.592 2.592 2.603 2.603 2.603 2.614 2.614 2.614 2.626 2.626 2.637 2.648 2.648 2.648 2.648 2.648 2.648 2.648 2.648 2.66 2.648 2.648 2.648 2.648 2.648 2.637 2.637 2.637 2.626 2.626 2.626 2.626 2.626 2.626 2.614 2.614 2.592 2.56 2.56 2.518 2.518 2.477 2.437 2.437 2.409 2.38 2.38 2.362 2.362 2.362 2.362 2.371 2.371 2.39 2.409 2.409 2.437 2.437 2.467 2.487 2.487 2.497 2.497 2.487 2.487 2.487 2.467 2.467 2.467 2.457 2.457 2.447 2.447 2.437 2.428 2.428 2.428 2.428 2.428 2.428 2.428 2.428 2.418 2.418 2.409 2.399 2.399 2.39 2.39 2.39 2.38 2.38 2.38 2.39 2.39 2.39 2.399 2.418 2.418 2.428 2.428 2.447 2.467 2.467 2.477 2.487 2.487 2.487 2.477 2.477 2.477 2.467 2.467 2.467 2.457 2.457 2.457 2.457 2.457 2.457 2.457 2.467 2.467 2.477 2.477 2.487 2.497 2.497 2.507 2.507 2.497 2.497 2.497 2.497 2.497 2.497 2.497 2.497 2.497 2.497 2.497 2.497 2.497 2.497 2.497 2.497 2.487 2.487 2.487 2.477 2.477 2.477 2.477 2.477 2.467 2.467 2.467 2.467 0 0 0 0 0 0 0 0 0 0 0 0 2.626 2.626 0 0 0 0 0 0 0 0 0 0 0 0.161 0.161 0.161 0.161 0.161 0.161 0.161 0.161 0.16 0.16 0.16 0 0 0 0 0 0 0 0 0 0 0 0 0 0 0 0 0 0 0 0 0 0 0 0 0 0 0 0 0 0 0 0 0 0 0 0 0 0 0 0 0 0 0 0 0 0 0 0 0 0 0 0 0 0 0 0 0 0 0 0 0 0 0 0 0 0 0 0 0 0 0 0 0 0 0 0 0 0 0 0 0 0 0 0 0 0 0 0.56 0.56 0.56 0.561 0.56 0.56 0.56 0.56 0.561 0.562 0.562 0.564 0.564 0.565 0.566 0.566 0.568 0.57 0.57 0.571 0.571 0.571 0.572 0.572 0.572 0.572 0.571 0.571 0.571 0.569 0.569 0.569 0.569 0 0 0 0 0 0 0 0 0 0 0 0 0 0 0 0 0 0 0 0 0 0 0 0 0 0 0
2.258 2.258 2.258 2.258 2.258 2.266 2.266 2.266 2.266 2.258 2.258 2.258 2.258 2.258 2.249 2.249 2.249 2.249 2.249 2.241 2.241 2.241 2.241 2.241 2.241 2.241 2.241 2.241 2.233 2.233 2.225 2.201 2.201 2.177 2.177 2.162 2.147 2.147 2.147 2.154 2.185 2.185 2.209 2.209 2.249 2.291 2.291 2.335 2.38 2.38 2.418 2.418 2.447 2.447 2.447 2.457 2.457 2.457 2.467 2.467 2.467 2.467 2.467 2.477 2.477 2.477 2.487 2.487 2.487 2.497 2.497 2.497 2.507 2.507 2.507 2.507 2.507 2.507 2.507 2.497 2.497 2.487 2.457 2.457 2.399 2.399 2.353 2.309 2.309 2.258 2.209 2.209 2.162 2.162 2.132 2.102 2.102 2.102 2.102 2.102 2.102 2.102 2.102 2.102 2.11 2.11 2.117 2.117 2.117 2.124 2.124 2.139 2.147 2.147 2.147 2.154 2.154 2.154 2.162 2.162 2.169 2.169 2.169 2.193 2.193 2.217 2.258 2.258 2.3 2.3 2.353 2.399 2.399 2.447 2.507 2.507 2.549 2.549 2.581 2.592 2.592 2.603 2.603 2.603 2.614 2.614 2.614 2.626 2.626 2.637 2.637 2.637 2.648 2.648 2.648 2.648 2.648 2.648 2.66 2.66 2.66 2.66 2.648 2.648 2.637 2.637 2.637 2.626 2.626 2.626 2.626 2.626 2.626 2.614 2.614 2.592 2.56 2.56 2.518 2.518 2.477 2.437 2.437 2.409 2.38 2.38 2.362 2.362 2.362 2.362 2.371 2.371 2.39 2.409 2.409 2.437 2.437 2.467 2.487 2.487 2.497 2.497 2.487 2.487 2.477 2.467 2.467 2.447 2.447 2.447 2.437 2.437 2.428 2.428 2.428 2.418 2.418 2.418 2.418 2.418 2.418 2.418 2.418 2.409 2.399 2.399 2.39 2.38 2.38 2.38 2.38 2.38 2.38 2.39 2.39 2.39 2.409 2.409 2.428 2.428 2.447 2.467 2.467 2.477 2.487 2.487 2.487 2.477 2.477 2.477 2.467 2.467 2.467 2.457 2.457 2.457 2.457 2.457 2.457 2.457 2.467 2.467 2.477 2.477 2.487 2.497 2.497 2.497 2.497 2.497 2.497 2.497 2.497 2.497 2.497 2.497 2.497 2.497 2.497 2.497 2.497 2.497 2.497 2.497 2.497 2.487 2.487 2.487 2.477 2.477 2.477 2.477 2.477 2.467 2.467 2.467 2.467 0 0 0 0 0 0 0 0 0 0 0 0 2.626 2.626 0 0 0 0 0 0 0 0 0 0 0 0.161 0.161 0.161 0.161 0.161 0.16 0.16 0.16 0.16 0.16 0.16 0.16 0 0 0 0 0 0 0 0 0 0 0 0 0 0 0 0 0 0 0 0 0 0 0 0 0 0 0 0 0 0 0 0 0 0 0 0 0 0 0 0 0 0 0 0 0 0 0 0 0 0 0 0 0 0 0 0 0 0 0 0 0 0 0 0 0 0 0 0 0 0 0 0 0 0 0 0 0 0 0 0 0 0 0 0 0 0 0.56 0.56 0.56 0.561 0.561 0.561 0.561 0.561 0.561 0.562 0.562 0.563 0.563 0.564 0.565 0.565 0.566 0.568 0.568 0.569 0.569 0.57 0.57 0.57 0.57 0.57 0.57 0.57 0.569 0.569 0.569 0.568 0.568 0.568 0.568 0 0 0 0 0 0 0 0 0 0 0 0 0 0 0 0 0 0 0 0 0 0 0 0 0
2.258 2.258 2.266 2.266 2.266 2.266 2.266 2.266 2.266 2.266 2.266 2.258 2.258 2.258 2.249 2.249 2.249 2.249 2.249 2.249 2.249 2.249 2.249 2.249 2.249 2.249 2.249 2.249 2.241 2.241 2.225 2.209 2.209 2.193 2.193 2.177 2.147 2.147 2.147 2.154 2.193 2.193 2.233 2.233 2.266 2.309 2.309 2.344 2.39 2.39 2.428 2.428 2.457 2.457 2.457 2.467 2.467 2.467 2.477 2.477 2.477 2.487 2.487 2.487 2.497 2.497 2.497 2.497 2.497 2.507 2.507 2.518 2.518 2.518 2.518 2.518 2.518 2.518 2.518 2.507 2.507 2.507 2.487 2.487 2.437 2.437 2.39 2.344 2.344 2.291 2.249 2.249 2.209 2.209 2.169 2.139 2.139 2.139 2.139 2.139 2.132 2.132 2.132 2.132 2.139 2.139 2.147 2.147 2.147 2.154 2.154 2.162 2.169 2.169 2.169 2.177 2.177 2.177 2.177 2.177 2.177 2.177 2.193 2.209 2.209 2.241 2.274 2.274 2.317 2.317 2.362 2.409 2.409 2.457 2.518 2.518 2.56 2.56 2.581 2.592 2.592 2.592 2.603 2.603 2.614 2.614 2.614 2.626 2.626 2.637 2.637 2.637 2.648 2.648 2.648 2.648 2.648 2.66 2.66 2.66 2.66 2.66 2.648 2.648 2.648 2.637 2.637 2.637 2.637 2.637 2.637 2.637 2.626 2.614 2.614 2.592 2.56 2.56 2.518 2.518 2.487 2.437 2.437 2.418 2.39 2.39 2.38 2.38 2.371 2.371 2.39 2.39 2.399 2.418 2.418 2.447 2.447 2.477 2.487 2.487 2.497 2.497 2.477 2.477 2.477 2.457 2.457 2.447 2.437 2.437 2.418 2.418 2.418 2.418 2.418 2.418 2.418 2.418 2.418 2.418 2.418 2.409 2.409 2.409 2.39 2.39 2.38 2.38 2.38 2.38 2.38 2.38 2.38 2.38 2.38 2.39 2.409 2.409 2.428 2.428 2.447 2.467 2.467 2.477 2.487 2.487 2.487 2.477 2.477 2.477 2.477 2.467 2.467 2.457 2.457 2.457 2.457 2.457 2.457 2.457 2.467 2.467 2.477 2.477 2.487 2.487 2.487 2.497 2.497 2.497 2.497 2.497 2.497 2.497 2.497 2.497 2.497 2.487 2.487 2.487 2.487 2.487 2.487 2.487 2.487 2.487 2.477 2.477 2.477 2.477 2.467 2.467 2.467 2.457 2.447 2.447 2.447 0 0 0 0 0 0 0 0 0 2.507 2.507 2.518 2.518 2.56 2.581 2.581 0 0 0 0 0 0 0 0 0 0.161 0.161 0.161 0.161 0.161 0.16 0.16 0.16 0.16 0.16 0.16 0.16 0.16 0.16 0 0 0 0 0 0 0 0 0 0 0 0 0 0 0 0 0 0 0 0 0 0 0 0 0 0 0 0 0 0 0 0 0 0 0 0 0 0 0 0 0 0 0 0 0 0 0 0 0 0 0 0 0 0 0 0 0 0 0 0 0 0 0 0 0 0 0 0 0 0 0 0 0 0 0 0 0 0 0 0 0 0 0 0 0.56 0.56 0.56 0.561 0.561 0.561 0.561 0.561 0.561 0.562 0.562 0.563 0.563 0.564 0.565 0.565 0.566 0.568 0.568 0.569 0.569 0.57 0.57 0.57 0.57 0.57 0.57 0.57 0.569 0.569 0.569 0.568 0.568 0.568 0.568 0 0 0 0 0 0 0 0 0 0 0 0 0 0 0 0 0 0 0 0 0 0 0 0 0
