6.118 6.118 6.118 6.118 6.118 6.18 6.18 6.307 6.44 6.44 6.578 6.65 6.65 6.723 6.723 6.798 6.874 6.874 6.874 6.874 6.874 6.874 6.874 6.874 6.874 6.874 6.874 6.952 6.952 7.032 7.032 7.114 7.197 7.197 7.283 7.371 7.371 7.461 7.461 7.283 7.283 7.114 6.952 6.952 6.798 6.798 6.65 6.508 6.508 6.373 6.373 6.373 6.307 6.307 6.307 6.373 6.44 6.44 6.508 6.65 6.65 6.798 6.798 6.874 7.032 7.032 7.197 7.283 7.283 7.371 7.371 7.461 7.553 7.553 7.647 7.647 7.553 7.553 7.461 7.283 7.283 7.114 6.952 6.952 6.798 6.798 6.44 5.827 5.827 5.274 4.817 4.817 4.817 0 4.219 4.052 4.052 3.922 3.824 3.824 3.8 3.8 3.753 3.73 3.73 3.685 3.663 3.663 3.642 3.642 3.62 3.599 3.599 3.599 3.599 3.599 3.599 3.599 3.599 3.62 3.62 3.62 3.642 3.642 3.642 3.663 3.663 3.642 3.642 3.642 3.599 3.599 3.578 3.578 3.578 3.557 3.557 3.536 3.496 3.496 3.496 3.456 3.456 3.437 3.437 3.399 3.399 0 0 0 0 0 0 0 0 0 0 0 0 0 0 0 0 0 0 0 0 0 0 0 0 0 0 0 0 0 0 0 0 0 0 0 0 0 0 0 0 0 0 0 0 0 0 0 0 0 0 0 0.296 0.296 0.296 0.296 0 0 0 0 0.295 0.295 0.294 0.294 0.294 0.292 0.291 0.291 0.29 0.29 0.289 0.289 0.289 0.288 0.288 0.288 0.288 0.288 0.288 0.288 0.289 0.289 0.29 0.291 0.291 0.292 0.293 0.293 0.294 0.294 0.294 0.295 0.295 0.295 0.295 0.295 0.295 0.294 0.292 0.292 0.291 0.29 0.29 0.289 0.289 0.289 0.288 0.288 0.288 0.287 0.287 0.287 0.287 0.287 0.288 0.288 0.288 0.288 0.289 0.289 0.289 0.289 0.289 0.29 0.29 0.29 0.29 0.29 0.29 0.29 0.291 0.291 0.291 0.291 0.292 0.292 0.292 0.292 0.292 0.292 0.292 0.293 0.293 0.293 0.293 0.293 0.293 0.293 0.293 0.293 0.294 0.294 0.294 0.294 0.294 0.294 0.294 0.294 0.295 0.295 0.295 0.295 0.295 0.295 0.295 0.295 0.295 0.295 0.295 0.295 0.295 0.296 0.296 0.296 0.296 0.296 0.296 0.296 0.296 0.297 0.296 0.296 0.296 0.296 0.296 0.296 0.296 0.296 0.296 0.296 0.297 0.297 0.297 0.297 0.297 0.298 0.298 0.299 0.299 0.299 0.3 0.3 0.3 0.301 0.301 0.301 0.301 0.301 0.301 0.302 0.302 0.302 0.302 0.302 0.303 0.303 0.303 0.303 0.303 0.303 0.303 0.304 0.304 0.303 0.303 0.303 0.303 0.303 0.303 0.303 0.303 0.303 0.303 0.304 0.303 0.303 0.303 0.304 0.304 0.304 0.304 0.304 0.304 0.305 0.306 0.306 0.307 0.307 0.308 0.309 0.309 0.311 0.313 0.313 0.315 0.315 0.316 0.316 0.316 0.317 0.317 0.317 0.317 0.317 0.317 0.317 0.317 0.317 0.317 0.316 0.316 0.315 0.315 0.315 0.314 0.314 0.314 0.313 0.313 0.312 0.312 0.312 0.312 0 0 0 0 0 0 0 0 0 0 0 0 0 0 0 0 0 0 0 0 0 0 0 0 0 0 0 0 0 0 0 0 0 0 0 0 0 0 0 0 0 0 0 0 0 0 0 0 0 0 0
6.118 6.118 6.118 6.118 6.118 6.18 6.18 6.307 6.44 6.44 6.578 6.65 6.65 6.723 6.723 6.798 6.798 6.798 6.874 6.874 6.874 6.874 6.874 6.874 6.874 6.874 6.874 6.952 6.952 7.032 7.032 7.114 7.283 7.283 7.371 7.461 7.461 7.461 7.461 7.371 7.371 7.197 7.032 7.032 6.874 6.874 6.723 6.578 6.578 6.44 6.373 6.373 6.373 6.373 6.373 6.373 6.44 6.44 6.578 6.65 6.65 6.798 6.798 6.874 7.032 7.032 7.114 7.197 7.197 7.371 7.371 7.461 7.553 7.553 7.647 7.647 7.553 7.553 7.461 7.283 7.283 7.197 7.032 7.032 6.798 6.798 6.508 5.883 5.883 5.367 4.934 4.934 4.934 0 4.219 4.052 4.052 3.922 3.824 3.824 3.8 3.8 3.753 3.73 3.73 3.685 3.663 3.663 3.62 3.62 3.62 3.599 3.599 3.599 3.599 3.599 3.599 3.599 3.599 3.62 3.62 3.62 3.642 3.642 3.642 3.663 3.663 3.642 3.642 3.642 3.599 3.599 3.578 3.578 3.578 3.557 3.557 3.536 3.496 3.496 3.496 3.456 3.456 3.437 3.437 3.399 3.399 0 0 0 0 0 0 0 0 0 0 0 0 0 0 0 0 0 0 0 0 0 0 0 0 0 0 0 0 0 0 0 0 0 0 0 0 0 0 0 0 0 0 0 0 0 0 0 0 0 0.295 0.295 0.295 0.296 0.296 0.296 0 0 0.296 0.296 0.295 0.295 0.294 0.294 0.294 0.293 0.292 0.292 0.291 0.291 0.29 0.289 0.289 0.288 0.288 0.288 0.288 0.288 0.288 0.288 0.289 0.289 0.29 0.291 0.291 0.292 0.293 0.293 0.294 0.294 0.295 0.296 0.296 0.296 0.296 0.296 0.296 0.295 0.293 0.293 0.292 0.29 0.29 0.289 0.289 0.289 0.288 0.288 0.287 0.287 0.287 0.287 0.287 0.287 0.287 0.288 0.288 0.288 0.289 0.289 0.289 0.289 0.289 0.29 0.29 0.29 0.29 0.29 0.29 0.29 0.291 0.291 0.291 0.291 0.292 0.292 0.292 0.292 0.292 0.292 0.292 0.293 0.293 0.293 0.293 0.293 0.293 0.293 0.293 0.293 0.294 0.294 0.294 0.294 0.294 0.294 0.294 0.294 0.294 0.294 0.295 0.295 0.295 0.295 0.295 0.295 0.295 0.295 0.295 0.295 0.295 0.295 0.295 0.296 0.296 0.296 0.296 0.296 0.296 0.296 0.296 0.296 0.296 0.296 0.296 0.296 0.296 0.296 0.296 0.296 0.297 0.297 0.297 0.297 0.297 0.298 0.298 0.298 0.299 0.299 0.3 0.3 0.3 0.3 0.3 0.3 0.3 0.3 0.3 0.301 0.301 0.302 0.302 0.302 0.303 0.303 0.303 0.303 0.303 0.303 0.303 0.304 0.304 0.303 0.303 0.303 0.303 0.303 0.303 0.303 0.303 0.303 0.303 0.304 0.303 0.303 0.303 0.304 0.304 0.304 0.304 0.304 0.304 0.305 0.306 0.306 0.307 0.307 0.308 0.309 0.309 0.311 0.313 0.313 0.315 0.315 0.316 0.316 0.316 0.317 0.317 0.317 0.317 0.317 0.317 0.317 0.317 0.317 0.317 0.316 0.316 0.315 0.315 0.315 0.314 0.313 0.313 0.313 0.313 0.312 0.311 0.311 0.311 0 0 0 0 0 0 0 0 0 0 0 0 0 0 0 0 0 0 0 0 0 0 0 0 0 0 0 0 0 0 0 0 0 0 0 0 0 0 0 0 0 0 0 0 0 0 0 0 0 0 0
6.118 6.118 6.118 6.118 6.118 6.18 6.18 6.307 6.44 6.44 6.508 6.578 6.578 6.65 6.65 6.798 6.798 6.798 6.874 6.874 6.874 6.874 6.874 6.874 6.874 6.874 6.874 6.952 6.952 7.032 7.032 7.197 7.283 7.283 7.371 7.461 7.461 7.461 7.461 7.371 7.371 7.283 7.114 7.114 6.952 6.952 6.798 6.65 6.65 6.508 6.44 6.44 6.44 6.44 6.44 6.44 6.508 6.508 6.578 6.65 6.65 6.798 6.798 6.874 7.032 7.032 7.114 7.197 7.197 7.371 7.371 7.461 7.647 7.647 7.647 7.744 7.553 7.553 7.461 7.283 7.283 7.197 7.032 7.032 6.798 6.798 6.65 5.883 5.883 5.367 4.934 4.934 4.934 0 4.308 4.106 4.106 3.947 3.848 3.848 3.824 3.824 3.753 3.73 3.73 3.685 3.663 3.663 3.62 3.62 3.599 3.599 3.599 3.599 3.599 3.599 3.599 3.599 3.599 3.62 3.62 3.62 3.642 3.663 3.663 3.663 3.663 3.663 3.663 3.642 3.599 3.599 3.578 3.578 3.578 3.557 3.557 3.536 3.516 3.516 3.496 3.496 0 0 0 0 0 0 0 0 0 0 0 0 0 0 0 0 0 0 0 0 0 0 0 0 0 0 0 0 0 0 0 0 0 0 0 0 0 0 0 0 0 0 0 0 0 0 0 0 0 0 0 0 0 0 0.295 0.295 0.295 0.296 0.296 0.296 0 0 0.296 0.296 0.295 0.295 0.294 0.294 0.294 0.293 0.292 0.292 0.291 0.291 0.29 0.289 0.289 0.288 0.288 0.288 0.288 0.288 0.288 0.288 0.289 0.289 0.29 0.291 0.291 0.292 0.293 0.293 0.295 0.295 0.296 0.296 0.296 0.297 0.297 0.296 0.296 0.295 0.293 0.293 0.292 0.29 0.29 0.289 0.289 0.289 0.288 0.288 0.287 0.287 0.287 0.287 0.287 0.287 0.287 0.288 0.288 0.288 0.289 0.289 0.289 0.289 0.289 0.29 0.29 0.29 0.29 0.29 0.29 0.29 0.291 0.291 0.291 0.291 0.292 0.292 0.292 0.292 0.292 0.292 0.292 0.293 0.293 0.293 0.293 0.293 0.293 0.293 0.293 0.293 0.294 0.294 0.294 0.294 0.294 0.294 0.294 0.294 0.294 0.294 0.295 0.295 0.295 0.295 0.295 0.295 0.295 0.295 0.295 0.295 0.295 0.295 0.295 0.296 0.296 0.296 0.296 0.296 0.296 0.296 0.296 0.296 0.296 0.296 0.296 0.296 0.296 0.296 0.296 0.297 0.297 0.297 0.297 0.297 0.297 0.298 0.298 0.298 0.298 0.298 0.299 0.299 0.299 0.299 0.299 0.299 0.299 0.299 0.3 0.3 0.3 0.301 0.301 0.301 0.302 0.302 0.302 0.302 0.302 0.302 0.302 0.303 0.303 0.303 0.302 0.302 0.302 0.302 0.302 0.302 0.302 0.302 0.302 0.303 0.303 0.303 0.303 0.303 0.303 0.303 0.303 0.303 0.303 0.304 0.304 0.304 0.306 0.306 0.307 0 0.311 0.311 0.313 0.313 0.316 0.316 0.317 0.317 0.317 0.317 0.318 0.318 0.318 0.318 0.318 0.318 0.317 0.317 0.317 0.316 0.316 0.316 0.315 0.315 0.314 0.313 0.313 0.313 0.313 0.312 0.311 0.311 0.311 0 0 0 0 0 0 0 0 0 0 0 0 0 0 0 0 0 0 0 0 0 0 0 0 0 0 0 0 0 0 0 0 0 0 0 0 0 0 0 0 0 0 0 0 0 0 0 0 0 0 0
6.118 6.057 6.057 6.057 6.057 6.118 6.118 6.243 6.373 6.373 6.508 6.578 6.578 6.65 6.65 6.798 6.798 6.798 6.874 6.874 6.874 6.874 6.874 6.874 6.874 6.874 6.874 6.952 6.952 7.032 7.032 7.114 7.283 7.283 7.371 7.461 7.461 7.461 7.461 7.371 7.371 7.283 7.114 7.114 6.952 6.952 6.798 6.65 6.65 6.508 6.44 6.44 6.44 6.44 6.44 6.44 6.508 6.508 6.578 6.65 6.65 6.798 6.798 6.874 6.952 6.952 7.032 7.197 7.197 7.371 7.371 7.461 7.553 7.553 7.553 7.553 7.461 7.461 7.371 7.283 7.283 7.197 7.032 7.032 6.798 6.798 6.65 6.057 6.057 5.512 5.056 5.056 4.78 4.78 4.401 4.162 4.162 3.973 3.872 3.872 3.824 3.824 3.776 3.73 3.73 3.685 3.663 3.663 3.62 3.62 3.599 3.599 3.599 3.599 3.599 3.599 3.599 3.62 3.62 3.62 3.642 3.642 3.663 3.685 3.685 3.685 3.685 3.663 3.663 3.642 3.62 3.62 3.578 3.578 3.578 3.557 3.557 3.536 3.516 3.516 3.496 3.496 0 0 0 0 0 0 0 0 0 0 0 0 0 0 0 0 0 0 0 0 0 0 0 0 0 0 0 0 0 0 0 0 0 0 0 0 0 0 0 0 0 0 0 0 0 0 0 0 0 0 0 0 0 0 0.295 0.295 0.295 0.296 0.296 0.296 0.296 0.296 0.296 0.296 0.295 0.295 0.295 0.294 0.294 0.293 0.292 0.292 0.291 0.291 0.29 0.29 0.29 0.289 0.288 0.288 0.288 0.288 0.288 0.288 0.289 0.289 0.29 0.291 0.291 0.293 0.294 0.294 0.295 0.295 0.296 0.296 0.296 0.297 0.297 0.296 0.296 0.295 0.294 0.294 0.292 0.291 0.291 0.29 0.29 0.289 0.288 0.288 0.287 0.287 0.287 0.287 0.287 0.287 0.287 0.288 0.288 0.288 0.289 0.289 0.289 0.289 0.289 0.29 0.29 0.29 0.29 0.29 0.29 0.29 0.29 0.291 0.291 0.291 0.291 0.291 0.292 0.292 0.292 0.292 0.292 0.292 0.293 0.293 0.293 0.293 0.293 0.293 0.293 0.293 0.293 0.293 0.293 0.293 0.294 0.294 0.294 0.294 0.294 0.294 0.294 0.294 0.294 0.294 0.294 0.295 0.295 0.295 0.295 0.295 0.295 0.295 0.295 0.295 0.295 0.295 0.296 0.296 0.296 0.296 0.296 0.296 0.296 0.296 0.296 0.296 0.296 0.296 0.296 0.297 0.297 0.297 0.297 0.297 0.297 0.298 0.298 0.298 0.298 0.298 0.299 0.299 0.299 0.299 0.299 0.299 0.299 0.299 0.3 0.3 0.3 0.301 0.301 0.301 0.302 0.302 0.302 0.302 0.302 0.302 0.302 0.303 0.303 0.303 0.302 0.302 0.302 0.302 0.302 0.302 0.302 0.302 0.302 0.303 0.303 0.303 0.303 0.303 0.303 0.303 0.303 0.303 0.303 0.303 0.303 0.303 0.304 0.304 0.307 0 0.311 0.311 0.313 0.313 0.316 0.316 0.317 0.318 0.318 0.318 0.318 0.318 0.318 0.318 0.318 0.318 0.318 0.317 0.317 0.317 0.317 0.316 0.315 0.315 0.314 0.313 0.313 0.313 0.313 0.312 0.311 0.311 0.311 0.311 0 0 0 0 0 0 0 0 0 0 0 0 0 0 0 0 0 0 0 0 0 0 0 0 0 0 0 0 0 0 0 0 0 0 0 0 0 0 0 0 0 0 0 0 0 0 0 0 0 0
6.118 6.057 6.057 6.057 6.057 6.118 6.118 6.243 6.373 6.373 6.508 6.578 6.578 6.65 6.65 6.798 6.874 6.874 6.874 6.874 6.874 6.874 6.874 6.874 6.874 6.874 6.952 6.952 6.952 7.032 7.032 7.114 7.283 7.283 7.371 7.461 7.461 7.461 7.461 7.371 7.371 7.283 7.114 7.114 6.952 6.952 6.874 6.723 6.723 6.65 6.508 6.508 6.508 6.508 6.508 6.508 6.578 6.578 6.65 6.723 6.723 6.798 6.798 6.874 6.952 6.952 7.032 7.197 7.197 7.197 7.197 7.283 7.461 7.461 7.461 7.461 7.283 7.283 7.283 7.197 7.197 7.114 7.032 7.032 6.874 6.874 6.65 6.18 6.18 5.665 5.185 5.185 4.78 4.78 4.401 4.162 4.162 3.973 3.872 3.872 3.824 3.824 3.776 3.73 3.73 3.685 3.663 3.663 3.62 3.62 3.599 3.599 3.599 3.599 3.599 3.599 3.599 3.62 3.62 3.62 3.642 3.642 3.663 3.685 3.685 3.685 3.685 3.663 3.663 3.642 3.62 3.62 3.578 3.578 3.578 3.557 3.557 3.536 3.516 3.516 3.496 3.496 0 0 0 0 0 0 0 0 0 0 0 0 0 0 0 0 0 0 0 0 0 0 0 0 0 0 0 0 0 0 0 0 0 0 0 0 0 0 0 0 0 0 0 0 0 0 0 0 0 0 0 0 0 0 0.295 0.295 0.295 0.296 0.296 0.296 0.296 0.296 0.296 0.296 0.296 0.296 0.296 0.295 0.295 0.294 0.293 0.293 0.292 0.292 0.29 0.29 0.29 0.289 0.288 0.288 0.288 0.288 0.288 0.288 0.289 0.289 0.29 0.292 0.292 0.293 0.294 0.294 0.295 0.295 0.296 0.296 0.296 0.297 0.297 0.297 0.297 0.296 0.295 0.295 0.293 0.291 0.291 0.29 0.29 0.289 0.288 0.288 0.287 0.287 0.287 0.287 0.287 0.287 0.287 0.287 0.287 0.288 0.288 0.288 0.289 0.289 0.289 0.289 0.289 0.29 0.29 0.29 0.29 0.29 0.29 0.291 0.291 0.291 0.291 0.291 0.292 0.292 0.292 0.292 0.292 0.292 0.293 0.293 0.293 0.293 0.293 0.293 0.293 0.293 0.293 0.293 0.293 0.293 0.294 0.294 0.294 0.294 0.294 0.294 0.294 0.294 0.294 0.294 0.294 0.295 0.295 0.295 0.295 0.295 0.295 0.295 0.295 0.295 0.295 0.295 0.295 0.296 0.296 0.296 0.296 0.296 0.296 0.296 0.296 0.296 0.296 0.296 0.296 0.296 0.297 0.297 0.297 0.297 0.297 0.297 0.297 0.297 0.298 0.298 0.298 0.298 0.298 0.298 0.298 0.298 0.299 0.299 0.299 0.3 0.3 0.3 0.3 0.3 0.301 0.301 0.301 0.301 0.301 0.301 0.301 0.302 0.302 0.302 0.302 0.302 0.301 0.301 0.301 0.301 0.301 0.301 0.301 0.302 0.302 0.302 0.302 0.302 0.302 0.302 0.302 0.302 0.302 0.302 0.303 0.303 0.304 0.304 0 0 0.311 0.311 0.313 0.313 0.316 0.316 0.317 0.318 0.318 0.318 0.318 0.318 0.318 0.318 0.318 0.318 0.318 0.317 0.317 0.317 0.317 0.316 0.315 0.315 0.314 0.313 0.313 0.313 0.313 0.312 0.311 0.311 0.311 0.311 0 0 0 0 0 0 0 0 0 0 0 0 0 0 0 0 0 0 0 0 0 0 0 0 0 0 0 0 0 0 0 0 0 0 0 0 0 0 0 0 0 0 0 0 0 0 0 0 0 0
6.118 6.057 6.057 6.057 6.057 6.118 6.118 6.243 6.373 6.373 6.508 6.578 6.578 6.65 6.65 6.798 6.798 6.798 6.874 6.874 6.874 6.874 6.874 6.798 6.798 6.798 6.874 6.874 6.874 6.952 6.952 7.032 7.114 7.114 7.283 7.371 7.371 7.371 7.371 7.371 7.371 7.197 7.114 7.114 6.952 6.952 6.874 6.723 6.723 6.65 6.508 6.508 6.508 6.508 6.508 6.508 6.578 6.578 6.65 6.65 6.65 6.798 6.798 6.798 6.952 6.952 7.032 7.032 7.032 7.197 7.197 7.283 7.461 7.461 7.461 7.461 7.283 7.283 7.283 7.197 7.197 7.114 6.952 6.952 6.798 6.798 6.65 6.18 6.18 5.665 5.185 5.185 4.78 4.78 4.466 4.219 4.219 4.025 3.897 3.897 3.824 3.824 3.776 3.73 3.73 3.708 3.663 3.663 3.642 3.642 3.62 3.62 3.62 3.62 3.62 3.62 3.62 3.642 3.642 3.663 3.685 3.685 3.685 3.708 3.708 3.708 3.708 3.685 3.685 3.642 3.62 3.62 3.578 3.578 3.578 3.557 3.557 3.536 3.516 3.516 3.496 3.496 0 0 0 0 0 0 0 0 0 0 0 0 0 0 0 0 0 0 0 0 0 0 0 0 0 0 0 0 0 0 0 0 0 0 0 0 0 0 0 0 0 0 0 0 0 0 0 0 0 0 0.294 0.294 0.294 0.294 0.295 0.295 0.295 0.295 0.295 0.296 0.296 0.296 0.296 0.296 0.296 0.296 0.296 0.295 0.295 0.294 0.293 0.293 0.292 0.292 0.292 0.291 0.291 0.29 0.289 0.289 0.289 0.289 0.289 0.289 0.29 0.29 0.291 0.292 0.292 0.293 0.294 0.294 0.295 0.295 0.296 0.297 0.297 0.297 0.298 0.298 0.298 0.297 0.295 0.295 0.293 0.291 0.291 0.29 0.29 0.289 0.288 0.288 0.287 0.287 0.287 0.287 0.287 0.287 0.287 0.287 0.287 0.288 0.288 0.288 0.288 0.288 0.289 0.289 0.289 0.289 0.289 0.289 0.29 0.29 0.29 0.29 0.29 0.291 0.291 0.291 0.291 0.291 0.292 0.292 0.292 0.292 0.292 0.292 0.292 0.292 0.293 0.293 0.293 0.293 0.293 0.293 0.293 0.293 0.293 0.293 0.293 0.293 0.294 0.294 0.294 0.294 0.294 0.294 0.294 0.294 0.294 0.294 0.294 0.295 0.295 0.295 0.295 0.295 0.295 0.295 0.295 0.296 0.296 0.296 0.296 0.296 0.296 0.296 0.296 0.296 0.296 0.296 0.296 0.296 0.297 0.297 0.297 0.297 0.297 0.297 0.297 0.297 0.298 0.298 0.298 0.298 0.298 0.298 0.298 0.298 0.299 0.299 0.299 0.3 0.3 0.3 0.3 0.3 0.3 0.3 0.3 0.3 0.3 0.3 0.3 0.3 0.3 0.3 0.3 0.3 0.3 0.3 0.3 0.3 0.3 0.3 0.3 0.301 0.301 0.301 0.301 0.301 0.301 0.301 0.301 0.301 0.301 0.301 0.301 0.302 0.303 0.303 0.305 0 0 0.313 0.313 0.313 0.316 0.316 0.318 0.318 0.318 0.319 0.319 0.319 0.319 0.319 0.319 0.319 0.318 0.318 0.318 0.317 0.317 0.316 0.315 0.315 0.314 0.313 0.313 0.313 0.313 0.312 0.311 0.311 0.311 0.311 0 0 0 0 0 0 0 0 0 0 0 0 0 0 0 0 0 0 0 0 0 0 0 0 0 0 0 0 0 0 0 0 0 0 0 0 0 0 0 0 0 0 0 0 0 0 0 0 0 0
6.118 6.118 6.118 6.118 6.118 6.18 6.18 6.307 6.44 6.44 6.508 6.578 6.578 6.65 6.65 6.723 6.798 6.798 6.874 6.874 6.874 6.874 6.874 6.798 6.798 6.798 6.874 6.874 6.874 6.952 6.952 7.032 7.114 7.114 7.197 7.283 7.283 7.283 7.283 7.283 7.283 7.197 7.032 7.032 6.952 6.952 6.798 6.723 6.723 6.65 6.508 6.508 6.508 6.508 6.508 6.508 6.578 6.578 6.65 6.65 6.65 6.723 6.723 6.798 6.874 6.874 6.952 7.032 7.032 7.114 7.114 7.197 7.283 7.283 7.283 7.371 7.283 7.283 7.197 7.114 7.114 7.032 6.952 6.952 6.798 6.798 6.65 6.243 6.243 5.827 5.367 5.367 5.367 0 0 4.339 4.339 4.106 3.947 3.947 3.824 3.824 3.776 3.73 3.73 3.708 3.663 3.663 3.642 3.642 3.62 3.62 3.62 3.62 3.62 3.62 3.62 3.642 3.642 3.663 3.685 3.685 3.685 3.708 3.708 3.708 3.708 3.685 3.685 3.642 3.62 3.62 3.578 3.578 3.578 3.557 3.557 3.536 3.516 3.516 3.496 3.496 0 0 0 0 0 0 0 0 0 0 0 0 0 0 0 0 0 0 0 0 0 0 0 0 0 0 0 0 0 0 0 0 0 0 0 0 0 0 0 0 0 0 0 0 0 0 0 0 0.293 0.293 0.293 0.294 0.294 0.294 0.295 0.295 0.295 0.295 0.295 0.296 0.296 0.296 0.296 0.296 0.296 0.296 0.296 0.296 0.296 0.295 0.294 0.294 0.294 0.294 0.293 0.293 0 0.291 0.29 0.29 0.29 0.29 0.29 0.29 0.29 0.29 0.291 0.292 0.292 0.293 0.294 0.294 0.295 0.295 0.296 0.297 0.297 0.297 0.298 0.298 0.298 0.297 0.296 0.296 0.294 0.292 0.292 0.291 0.291 0.289 0.288 0.288 0.287 0.287 0.287 0.287 0.287 0.287 0.287 0.287 0.287 0.288 0.288 0.288 0.288 0.288 0.289 0.289 0.289 0.289 0.289 0.289 0.29 0.29 0.29 0.29 0.29 0.291 0.291 0.291 0.291 0.291 0.292 0.292 0.292 0.292 0.292 0.292 0.292 0.292 0.292 0.292 0.292 0.293 0.293 0.292 0.292 0.292 0.293 0.293 0.293 0.293 0.293 0.293 0.293 0.293 0.294 0.294 0.294 0.294 0.294 0.294 0.294 0.294 0.294 0.294 0.294 0.295 0.295 0.295 0.295 0.295 0.295 0.295 0.295 0.295 0.296 0.296 0.296 0.296 0.296 0.296 0.296 0.296 0.296 0.296 0.296 0.296 0.296 0.297 0.297 0.297 0.297 0.297 0.297 0.297 0.297 0.297 0.297 0.298 0.298 0.298 0.298 0.299 0.299 0.299 0.299 0.3 0.3 0.3 0.3 0.3 0.3 0.3 0.3 0.3 0.3 0.3 0.3 0.3 0.3 0.3 0.3 0.3 0.3 0.3 0.3 0.301 0.301 0.301 0.301 0.301 0.301 0.301 0.301 0.301 0.301 0.301 0.301 0.302 0.303 0.303 0.305 0 0 0.313 0.313 0.313 0.317 0.317 0.318 0.319 0.319 0.319 0.319 0.319 0.319 0.319 0.319 0.319 0.318 0.318 0.318 0.317 0.317 0.316 0.315 0.315 0.314 0.313 0.313 0.313 0.313 0.312 0.311 0.311 0.311 0.311 0 0 0 0 0 0 0 0 0 0 0 0 0 0 0 0 0 0 0 0 0 0 0 0 0 0 0 0 0 0 0 0 0 0 0 0 0 0 0 0 0 0 0 0 0 0 0 0 0 0
6.307 6.243 6.243 6.243 6.243 6.307 6.307 6.373 6.508 6.508 6.508 6.578 6.578 6.723 6.723 6.723 6.874 6.874 6.874 6.874 6.874 6.874 6.874 6.874 6.874 6.874 6.874 6.952 6.952 6.952 6.952 7.032 7.114 7.114 7.197 7.283 7.283 7.283 7.283 7.283 7.283 7.197 7.032 7.032 6.952 6.952 6.798 6.723 6.723 6.65 6.578 6.578 6.508 6.508 6.508 6.578 6.578 6.578 6.65 6.65 6.65 6.723 6.723 6.798 6.874 6.874 6.952 7.032 7.032 7.114 7.114 7.197 7.283 7.283 7.283 7.371 7.283 7.283 7.197 7.114 7.114 7.032 6.952 6.952 6.798 6.798 6.65 6.373 6.373 5.998 5.562 5.562 5.185 5.185 4.78 4.339 4.339 4.106 3.947 3.947 3.848 3.848 3.8 3.73 3.73 3.708 3.685 3.685 3.663 3.663 3.642 3.642 3.642 3.642 3.663 3.685 3.685 3.708 3.708 3.708 3.73 3.73 3.73 3.73 3.73 3.73 3.73 3.685 3.685 3.642 3.62 3.62 3.578 3.557 3.557 3.557 3.557 3.536 3.516 3.516 3.516 0 0 0 0 0 0 0 0 0 0 0 0 0 0 0 0 0 0 0 0 0 0 0 0 0 0 0 0 0 0 0 0 0 0 0 0 0 0 0 0 0 0 0 0 0 0 0 0 0 0.293 0.293 0.293 0.294 0.294 0.294 0.295 0.295 0.295 0.295 0.295 0.296 0.296 0.296 0.297 0.297 0.297 0.297 0.297 0.296 0.296 0.296 0.295 0.295 0.295 0.295 0.294 0.294 0 0.291 0.29 0.29 0.29 0.29 0.29 0.29 0.29 0.29 0.291 0.292 0.292 0.293 0.294 0.294 0.295 0.295 0.296 0.297 0.297 0.298 0.298 0.298 0.298 0.298 0.296 0.296 0.294 0.292 0.292 0.291 0.291 0.289 0.288 0.288 0.287 0.287 0.287 0.287 0.287 0.287 0.287 0.287 0.287 0.287 0.288 0.288 0.288 0.288 0.288 0.289 0.289 0.289 0.289 0.289 0.289 0.289 0.29 0.29 0.29 0.29 0.291 0.291 0.291 0.291 0.291 0.292 0.292 0.292 0.292 0.292 0.292 0.292 0.292 0.292 0.292 0.293 0.293 0.292 0.292 0.292 0.293 0.293 0.293 0.293 0.293 0.293 0.293 0.293 0.294 0.294 0.294 0.294 0.294 0.294 0.294 0.294 0.294 0.294 0.294 0.295 0.295 0.295 0.295 0.295 0.295 0.295 0.295 0.295 0.296 0.296 0.296 0.296 0.296 0.296 0.296 0.296 0.296 0.296 0.296 0.296 0.296 0.296 0.296 0.296 0.296 0.296 0.296 0.296 0.296 0.297 0.297 0.297 0.297 0.297 0.297 0.298 0.298 0.298 0.298 0.299 0.299 0.299 0.299 0.299 0.299 0.299 0.299 0.3 0.3 0.3 0.3 0.3 0.3 0.3 0.3 0.3 0.3 0.3 0.3 0.3 0.3 0.3 0.3 0.3 0.3 0.3 0.3 0.3 0.3 0.3 0.3 0.301 0.302 0.302 0.304 0 0 0.312 0.312 0.312 0.317 0.317 0.318 0.319 0.319 0.319 0.319 0.319 0.319 0.319 0.319 0.319 0.318 0.318 0.318 0.317 0.317 0.316 0.315 0.315 0.314 0.313 0.313 0.312 0.312 0.312 0.311 0.311 0.311 0.311 0 0 0 0 0 0 0 0 0 0 0 0 0 0 0 0 0 0 0 0 0 0 0 0 0 0 0 0 0 0 0 0 0 0 0 0 0 0 0 0 0 0 0 0 0 0 0 0 0 0
6.307 6.243 6.243 6.243 6.243 6.307 6.307 6.373 6.508 6.508 6.508 6.578 6.578 6.723 6.723 6.723 6.874 6.874 6.874 6.874 6.874 6.874 6.874 6.874 6.874 6.874 6.874 6.874 6.874 6.874 6.874 6.952 7.032 7.032 7.114 7.197 7.197 7.197 7.197 7.197 7.197 7.114 7.032 7.032 6.952 6.952 6.798 6.723 6.723 6.65 6.578 6.578 6.508 6.508 6.508 6.578 6.578 6.578 6.578 6.65 6.65 6.65 6.65 6.723 6.798 6.798 6.874 6.952 6.952 7.032 7.032 7.114 7.114 7.114 7.197 7.197 7.114 7.114 7.114 7.032 7.032 6.952 6.874 6.874 6.798 6.798 6.65 6.373 6.373 5.998 5.562 5.562 5.185 5.185 4.78 4.466 4.466 4.19 4.025 4.025 3.922 3.922 3.848 3.776 3.776 3.73 3.708 3.708 3.685 3.685 3.685 3.685 3.708 3.708 3.708 3.753 3.753 3.776 3.776 3.776 3.776 3.776 3.776 3.776 3.776 3.776 3.753 3.708 3.708 3.663 3.62 3.62 3.578 3.557 3.557 3.557 3.557 3.536 3.516 3.516 3.516 0 0 0 0 0 0 0 0 0 0 0 0 0 0 0 0 0 0 0 0 0 0 0 0 0 0 0 0 0 0 0 0 0 0 0 0 0 0 0 0 0 0 0 0 0 0 0 0 0 0.292 0.292 0.292 0.293 0.294 0.294 0.294 0.294 0.294 0.295 0.295 0.295 0.296 0.296 0.296 0.297 0.297 0.297 0.297 0.296 0.296 0.296 0.295 0.295 0.295 0.295 0.294 0.294 0 0 0.292 0.292 0.291 0.291 0.29 0.29 0.291 0.291 0.291 0.292 0.292 0.293 0.294 0.294 0.295 0.295 0.296 0.297 0.297 0.298 0 0 0 0.298 0.296 0.296 0.294 0.292 0.292 0.292 0 0.29 0.288 0.288 0.287 0.287 0.287 0.287 0.287 0.287 0.287 0.287 0.287 0.287 0.288 0.288 0.288 0.288 0.288 0.288 0.288 0.289 0.289 0.289 0.289 0.289 0.289 0.29 0.29 0.29 0.29 0.29 0.291 0.291 0.291 0.291 0.291 0.291 0.291 0.291 0.292 0.292 0.292 0.292 0.292 0.292 0.292 0.292 0.292 0.292 0.292 0.292 0.292 0.293 0.293 0.293 0.293 0.293 0.293 0.293 0.293 0.293 0.294 0.294 0.294 0.294 0.294 0.294 0.294 0.294 0.294 0.294 0.295 0.295 0.295 0.295 0.295 0.295 0.295 0.295 0.295 0.295 0.295 0.296 0.296 0.296 0.296 0.296 0.296 0.296 0.296 0.296 0.296 0.296 0.296 0.296 0.296 0.296 0.296 0.297 0.297 0.297 0.297 0.297 0.297 0.298 0.298 0.298 0.298 0.299 0.299 0.299 0.299 0.299 0.299 0.299 0.299 0.3 0.3 0.3 0.3 0.3 0.3 0.3 0.3 0.3 0.3 0.3 0.3 0.3 0.3 0.3 0.3 0.3 0.3 0.3 0.3 0.3 0.3 0.3 0.3 0.301 0.302 0.302 0.302 0 0 0.312 0.312 0.312 0.317 0.317 0.319 0.319 0.319 0.319 0.319 0.319 0.319 0.319 0.319 0.319 0.319 0.318 0.318 0.317 0.317 0.316 0.315 0.315 0.314 0.313 0.313 0.312 0.312 0.312 0.311 0.311 0.31 0.31 0 0 0 0 0 0 0 0 0 0 0 0 0 0 0 0 0 0 0 0 0 0 0 0 0 0 0 0 0 0 0 0 0 0 0 0 0 0 0 0 0 0 0 0 0 0 0 0 0 0
6.508 6.508 6.44 6.44 6.44 6.508 6.508 6.578 6.578 6.578 6.65 6.723 6.723 6.798 6.798 6.798 6.874 6.874 6.874 6.874 6.874 6.874 6.874 6.798 6.798 6.798 6.874 6.874 6.874 6.874 6.874 6.952 6.952 6.952 7.032 7.114 7.114 7.114 7.114 7.114 7.114 7.114 7.032 7.032 6.952 6.952 6.798 6.723 6.723 6.65 6.578 6.578 6.578 6.578 6.578 6.578 6.578 6.578 6.578 6.65 6.65 6.65 6.65 6.723 6.723 6.723 6.798 6.798 6.798 6.874 6.874 6.952 7.032 7.032 7.032 7.032 7.032 7.032 6.952 6.952 6.952 6.952 6.874 6.874 6.798 6.798 6.65 6.44 6.44 6.18 5.827 5.827 5.414 5.414 5.015 5.015 0 4.19 4.025 4.025 3.922 3.922 3.848 3.776 3.776 3.73 3.708 3.708 3.685 3.685 3.685 3.685 3.708 3.708 3.708 3.753 3.753 3.776 3.776 3.776 3.776 3.776 3.776 3.776 3.776 3.776 3.753 3.708 3.708 3.663 3.62 3.62 3.578 3.557 3.557 3.557 3.557 3.536 3.516 3.516 3.516 0 0 0 0 0 0 0 0 0 0 0 0 0 0 0 0 0 0 0 0 0 0 0 0 0 0 0 0 0 0 0 0 0 0 0 0 0 0 0 0 0 0 0 0 0 0 0 0 0 0.292 0.292 0.292 0.293 0.294 0.294 0.294 0.294 0.294 0.295 0.295 0.295 0.296 0.296 0.296 0.297 0.297 0.297 0.297 0.297 0.297 0.297 0.297 0.297 0.296 0.296 0.295 0.295 0.295 0.295 0.295 0 0 0 0 0 0 0 0 0 0 0.295 0.295 0.295 0.295 0.295 0.296 0.297 0.297 0.298 0.3 0.299 0.299 0.298 0.297 0.297 0.295 0.293 0.293 0.293 0 0 0.288 0.288 0.287 0.286 0.286 0.286 0.287 0.287 0.287 0.287 0.287 0.287 0.287 0.287 0.288 0.288 0.288 0.288 0.288 0.289 0.289 0.289 0.289 0.289 0.289 0.29 0.29 0.29 0.29 0.29 0.291 0.291 0.291 0.291 0.291 0.291 0.291 0.291 0.292 0.292 0.292 0.292 0.292 0.292 0.292 0.292 0.292 0.292 0.292 0.292 0.292 0.293 0.293 0.293 0.293 0.293 0.293 0.293 0.293 0.293 0.293 0.293 0.293 0.293 0.294 0.294 0.294 0.294 0.294 0.294 0.294 0.294 0.294 0.295 0.295 0.295 0.295 0.295 0.295 0.295 0.295 0.295 0.295 0.295 0.295 0.295 0.295 0.296 0.296 0.296 0.296 0.296 0.296 0.296 0.296 0.296 0.296 0.296 0.296 0.296 0.297 0.297 0.297 0.297 0.297 0.297 0.297 0.298 0.298 0.298 0.298 0.298 0.298 0.298 0.298 0.299 0.299 0.299 0.299 0.299 0.299 0.299 0.299 0.299 0.299 0.299 0.299 0.3 0.3 0.3 0.3 0.3 0.3 0.299 0.299 0.299 0.299 0.299 0.299 0.299 0.3 0.3 0.302 0 0 0.312 0.312 0.312 0.317 0.317 0.319 0.319 0.319 0.319 0.319 0.319 0.319 0.319 0.319 0.319 0.319 0.318 0.318 0.317 0.317 0.316 0.315 0.315 0.314 0.313 0.313 0.312 0.312 0.311 0.31 0.31 0.31 0.31 0 0 0 0 0 0 0 0 0 0 0 0 0 0 0 0 0 0 0 0 0 0 0 0 0 0 0 0 0 0 0 0 0 0 0 0 0 0 0 0 0 0 0 0 0 0 0 0 0 0
6.508 6.508 6.44 6.44 6.44 6.508 6.508 6.578 6.578 6.578 6.723 6.798 6.798 6.798 6.798 6.874 6.874 6.874 6.874 6.874 6.874 6.874 6.874 6.798 6.798 6.798 6.874 6.874 6.874 6.874 6.874 6.952 6.952 6.952 7.032 7.114 7.114 7.114 7.114 7.114 7.114 7.114 7.032 7.032 6.952 6.952 6.874 6.798 6.798 6.723 6.65 6.65 6.65 6.65 6.65 6.65 6.65 6.65 6.65 6.65 6.65 6.65 6.65 6.723 6.723 6.723 6.798 6.798 6.798 6.874 6.874 6.952 7.032 7.032 7.032 7.032 7.032 7.032 6.952 6.952 6.952 6.952 6.874 6.874 6.798 6.798 6.723 6.578 6.578 6.373 5.827 5.827 5.414 5.414 5.015 5.015 0 4.339 4.134 4.134 3.999 3.999 3.897 3.8 3.8 3.753 3.753 3.753 3.73 3.73 3.73 3.753 3.753 3.753 3.753 3.776 3.776 3.8 3.8 3.824 3.824 3.8 3.8 3.8 3.776 3.776 3.753 3.708 3.708 3.663 3.62 3.62 3.578 3.557 3.557 3.557 3.557 3.536 3.516 3.516 3.516 0 0 0 0 0 0 0 0 0 0 0 0 0 0 0 0 0 0 0 0 0 0 0 0 0 0 0 0 0 0 0 0 0 0 0 0 0 0 0 0 0 0 0 0 0 0 0 0 0 0.292 0.292 0.292 0.293 0.293 0.293 0.294 0.294 0.294 0.295 0.295 0.295 0.296 0.296 0.297 0.297 0.297 0.298 0.298 0.298 0.298 0.298 0.298 0.298 0.297 0.297 0.296 0.295 0.295 0.295 0.294 0.294 0.293 0.293 0.292 0.292 0.292 0.292 0.292 0.293 0.293 0.295 0.295 0.295 0 0.297 0.297 0.298 0.298 0.299 0.3 0.299 0.299 0.299 0.298 0.298 0.296 0.293 0.293 0.293 0 0 0.288 0.288 0.287 0.286 0.286 0.286 0.286 0.286 0.287 0.287 0.287 0.287 0.287 0.287 0.287 0.287 0.288 0.288 0.288 0.288 0.288 0.288 0.288 0.288 0.289 0.289 0.289 0.289 0.29 0.29 0.29 0.29 0.29 0.291 0.291 0.291 0.291 0.291 0.291 0.291 0.291 0.291 0.291 0.291 0.291 0.291 0.291 0.291 0.292 0.292 0.292 0.292 0.292 0.292 0.292 0.292 0.293 0.293 0.293 0.293 0.293 0.293 0.293 0.293 0.294 0.294 0.294 0.294 0.294 0.294 0.294 0.294 0.294 0.295 0.295 0.295 0.295 0.295 0.295 0.295 0.295 0.295 0.295 0.295 0.295 0.295 0.295 0.296 0.296 0.296 0.296 0.296 0.296 0.296 0.296 0.296 0.296 0.296 0.296 0.296 0.297 0.297 0.297 0.297 0.297 0.297 0.297 0.298 0.298 0.298 0.298 0.298 0.298 0.298 0.298 0.298 0.298 0.298 0.298 0.298 0.298 0.298 0.298 0.298 0.299 0.299 0.299 0.299 0.299 0.299 0.299 0.299 0.299 0.299 0.299 0.299 0.298 0.298 0.298 0.298 0.299 0.299 0.3 0.301 0.301 0 0 0.319 0.319 0.319 0.319 0.319 0.319 0.319 0.319 0.319 0.319 0.319 0.319 0.319 0.319 0.318 0.318 0.317 0.317 0.316 0.315 0.315 0.314 0.313 0.313 0.312 0.312 0.311 0.31 0.31 0.31 0.31 0 0 0 0 0 0 0 0 0 0 0 0 0 0 0 0 0 0 0 0 0 0 0 0 0 0 0 0 0 0 0 0 0 0 0 0 0 0 0 0 0 0 0 0 0 0 0 0 0 0
6.578 6.578 6.578 6.578 6.578 6.578 6.578 6.65 6.723 6.723 6.723 6.798 6.798 6.798 6.798 6.798 6.874 6.874 6.874 6.874 6.874 6.874 6.798 6.798 6.798 6.798 6.798 6.798 6.798 6.874 6.874 6.874 6.952 6.952 6.952 7.032 7.032 7.114 7.114 7.114 7.114 7.114 7.032 7.032 6.952 6.952 6.874 6.798 6.798 6.723 6.65 6.65 6.65 6.65 6.65 6.65 6.65 6.65 6.65 6.65 6.65 6.65 6.65 6.723 6.723 6.723 6.798 6.798 6.798 6.874 6.874 6.952 7.032 7.032 7.032 7.032 6.952 6.952 6.952 6.952 6.952 6.952 6.874 6.874 6.798 6.798 6.723 6.578 6.578 6.373 6.057 6.057 5.718 5.718 5.274 5.274 5.274 4.635 4.401 4.401 4.249 4.249 4.079 3.973 3.973 3.922 3.897 3.897 3.872 3.872 3.872 3.848 3.848 3.848 3.872 3.897 3.897 3.922 3.922 3.897 3.897 3.872 3.848 3.848 3.824 3.824 3.776 3.73 3.73 3.685 3.62 3.62 3.578 3.557 3.557 3.557 3.557 3.536 3.516 3.516 3.516 0 0 0 0 0 0 0 0 0 0 0 0 0 0 0 0 0 0 0 0 0 0 0 0 0 0 0 0 0 0 0 0 0 0 0 0 0 0 0 0 0 0 0 0 0 0 0 0.292 0.292 0.292 0.292 0.292 0.292 0.293 0.293 0.293 0.294 0.294 0.295 0.295 0.295 0.296 0.296 0.297 0.297 0.297 0.298 0.298 0.298 0.298 0.298 0.298 0.298 0.297 0.297 0.296 0.295 0.295 0.295 0.294 0.294 0.293 0.293 0.292 0.292 0.292 0.292 0.292 0.293 0.293 0.294 0.294 0.295 0 0.297 0.297 0.298 0.298 0.299 0.3 0.299 0.299 0.299 0.298 0.298 0.296 0.293 0.293 0.293 0 0 0.288 0.288 0.287 0.286 0.286 0.286 0.286 0.286 0.287 0.287 0.287 0.287 0.287 0.287 0.287 0.287 0.288 0.288 0.288 0.288 0.288 0.288 0.288 0.288 0.289 0.289 0.289 0.289 0.29 0.29 0.29 0.29 0.29 0.29 0.29 0.29 0.29 0.29 0.291 0.291 0.291 0.291 0.291 0.291 0.291 0.291 0.291 0.291 0.291 0.291 0.291 0.291 0.292 0.292 0.292 0.292 0.292 0.292 0.292 0.292 0.293 0.293 0.293 0.293 0.293 0.293 0.293 0.294 0.294 0.294 0.294 0.294 0.294 0.294 0.294 0.294 0.294 0.294 0.295 0.295 0.295 0.295 0.295 0.295 0.295 0.295 0.295 0.295 0.295 0.295 0.295 0.295 0.295 0.295 0.295 0.295 0.295 0.296 0.296 0.296 0.296 0.296 0.296 0.296 0.296 0.297 0.297 0.297 0.297 0.297 0.297 0.297 0.297 0.298 0.298 0.298 0.298 0.298 0.298 0.298 0.298 0.298 0.298 0.298 0.299 0.299 0.299 0.299 0.299 0.299 0.299 0.299 0.299 0.299 0.299 0.299 0.298 0.298 0.298 0.298 0.299 0.299 0.3 0.301 0.301 0 0 0.319 0.319 0.319 0.319 0.319 0.319 0.319 0.32 0.319 0.319 0.319 0.319 0.319 0.319 0.318 0.318 0.317 0.317 0.316 0.315 0.315 0.314 0.313 0.313 0.312 0.312 0.311 0.31 0.31 0.309 0.309 0 0 0 0 0 0 0 0 0 0 0 0 0 0 0 0 0 0 0 0 0 0 0 0 0 0 0 0 0 0 0 0 0 0 0 0 0 0 0 0 0 0 0 0 0 0 0 0 0 0
6.65 6.65 6.65 6.65 6.65 6.65 6.65 6.65 6.723 6.723 6.723 6.798 6.798 6.798 6.798 6.798 6.874 6.874 6.874 6.874 6.874 6.874 6.798 6.798 6.798 6.798 6.798 6.798 6.798 6.874 6.874 6.874 6.952 6.952 6.952 7.032 7.032 7.114 7.114 7.114 7.114 7.114 7.032 7.032 6.952 6.952 6.874 6.874 6.874 6.798 6.723 6.723 6.723 6.723 6.65 6.65 6.65 6.65 6.65 6.723 6.723 6.723 6.723 6.723 6.798 6.798 6.798 6.874 6.874 6.874 6.874 6.952 7.032 7.032 7.032 7.032 6.952 6.952 6.952 6.952 6.952 6.952 6.874 6.874 6.798 6.798 6.798 6.723 6.723 6.578 6.307 6.307 5.998 5.998 5.613 5.274 5.274 4.635 4.401 4.401 4.249 4.249 4.079 3.973 3.973 3.922 3.897 3.897 3.872 3.872 3.872 3.848 3.848 3.848 3.872 3.897 3.897 3.922 3.922 3.897 3.897 3.872 3.848 3.848 3.824 3.824 3.776 3.73 3.73 3.685 3.599 3.599 3.578 3.557 3.557 3.536 3.536 3.536 3.516 3.516 3.516 0 0 0 0 0 0 0 0 0 0 0 0 0 0 0 0 0 0 0 0 0 0 0 0 0 0 0 0 0 0 0 0 0 0 0 0 0 0 0 0 0 0 0 0 0 0 0 0.292 0.292 0.292 0.292 0.292 0.292 0.293 0.293 0.293 0.294 0.294 0.295 0.295 0.295 0.296 0.296 0.297 0.298 0.298 0.298 0.298 0.299 0.299 0.299 0.299 0.299 0.298 0.298 0.297 0.296 0.296 0.296 0.295 0.295 0.294 0.294 0.294 0.293 0.293 0.293 0.293 0.293 0.293 0.294 0.294 0.295 0 0.297 0.297 0.299 0.299 0.3 0.3 0.3 0.3 0.299 0.298 0.298 0.296 0.296 0 0 0 0 0.288 0.288 0.287 0.286 0.286 0.286 0.286 0.286 0.286 0.286 0.286 0.287 0.287 0.287 0.287 0.287 0.287 0.288 0.288 0.288 0.288 0.288 0.288 0.288 0.288 0.289 0.289 0.289 0.289 0.289 0.29 0.29 0.29 0.29 0.29 0.29 0.29 0.29 0.291 0.291 0.291 0.291 0.291 0.291 0.291 0.291 0.291 0.291 0.291 0.291 0.291 0.291 0.292 0.292 0.292 0.292 0.292 0.292 0.292 0.292 0.293 0.293 0.293 0.293 0.293 0.293 0.293 0.294 0.294 0.294 0.294 0.294 0.294 0.294 0.294 0.294 0.294 0.294 0.294 0.294 0.294 0.294 0.294 0.294 0.294 0.294 0.295 0.295 0.295 0.295 0.295 0.295 0.295 0.295 0.295 0.295 0.295 0.295 0.295 0.295 0.296 0.296 0.296 0.296 0.296 0.296 0.296 0.296 0.296 0.296 0.297 0.297 0.297 0.297 0.297 0.297 0.297 0.297 0.298 0.298 0.298 0.298 0.298 0.298 0.298 0.298 0.299 0.299 0.299 0.299 0.299 0.299 0.299 0.298 0.298 0.298 0.298 0.298 0.297 0.297 0.298 0.298 0.297 0.297 0.297 0.3 0.3 0.319 0.319 0.319 0.319 0.319 0.319 0.319 0.319 0.319 0.319 0.319 0.319 0.319 0.318 0.318 0.318 0.317 0.317 0.316 0.315 0.315 0.313 0.312 0.312 0.311 0.311 0.31 0.309 0.309 0.309 0.309 0 0 0 0 0 0 0 0 0 0 0 0 0 0 0 0 0 0 0 0 0 0 0 0 0 0 0 0 0 0 0 0 0 0 0 0 0 0 0 0 0 0 0 0 0 0 0 0 0 0
6.65 6.65 6.65 6.65 6.65 6.65 6.65 6.65 6.723 6.723 6.723 6.723 6.723 6.798 6.798 6.798 6.798 6.798 6.798 6.798 6.798 6.798 6.798 6.798 6.798 6.798 6.798 6.798 6.798 6.798 6.798 6.798 6.874 6.874 6.874 6.952 6.952 6.952 6.952 7.032 7.032 7.032 7.032 7.032 6.952 6.952 6.874 6.874 6.874 6.798 6.723 6.723 6.723 6.723 6.65 6.65 6.65 6.65 6.65 6.723 6.723 6.723 6.723 6.723 6.798 6.798 6.798 6.874 6.874 6.874 6.874 6.952 7.032 7.032 7.032 7.032 6.952 6.952 6.952 6.952 6.952 6.952 6.874 6.874 6.798 6.798 6.798 6.723 6.723 6.578 6.307 6.307 5.998 5.998 5.613 5.274 5.274 5.274 5.274 0 4.498 4.498 4.339 4.19 4.19 4.106 4.079 4.079 4.052 4.052 4.025 4.025 4.025 4.025 4.025 4.052 4.052 4.079 4.079 4.052 4.052 3.999 3.947 3.947 3.897 3.897 3.824 3.753 3.753 3.685 3.599 3.599 3.578 3.557 3.557 3.536 3.536 3.536 3.516 3.516 3.516 0 0 0 0 0 0 0 0 0 0 0 0 0 0 0 0 0 0 0 0 0 0 0 0 0 0 0 0 0 0 0 0 0 0 0 0 0 0 0 0 0 0 0 0 0 0 0.291 0.291 0.291 0.291 0.292 0.292 0.292 0.292 0.292 0.293 0.293 0.293 0.294 0.294 0.295 0.296 0.296 0.297 0.298 0.298 0.299 0.299 0.3 0.3 0.3 0.3 0.3 0.299 0.299 0.298 0.297 0.297 0.296 0.295 0.295 0.294 0.294 0.294 0.293 0.293 0.293 0.293 0.293 0.293 0.294 0.294 0.295 0 0 0.299 0.299 0.299 0.301 0.301 0.301 0.301 0.3 0.299 0.299 0.299 0 0 0.292 0.292 0.292 0.287 0.287 0.287 0.286 0.286 0.286 0.286 0.286 0.286 0.286 0.286 0.286 0.287 0.287 0.287 0.287 0.287 0.287 0.287 0.287 0.287 0.287 0.288 0.288 0.288 0.288 0.288 0.288 0.289 0.289 0.289 0.289 0.289 0.289 0.289 0.29 0.29 0.29 0.29 0.29 0.29 0.29 0.29 0.29 0.291 0.291 0.291 0.291 0.291 0.291 0.291 0.291 0.291 0.291 0.291 0.291 0.292 0.292 0.292 0.292 0.292 0.292 0.292 0.292 0.293 0.293 0.293 0.293 0.293 0.293 0.293 0.294 0.294 0.294 0.294 0.294 0.294 0.294 0.294 0.294 0.294 0.294 0.294 0.294 0.294 0.294 0.295 0.295 0.295 0.295 0.295 0.295 0.295 0.295 0.295 0.295 0.295 0.295 0.295 0.295 0.296 0.296 0.296 0.296 0.296 0.296 0.296 0.296 0.296 0.296 0.297 0.297 0.297 0.297 0.297 0.297 0.297 0.297 0.298 0.298 0.298 0.298 0.298 0.298 0.298 0.298 0.299 0.299 0.299 0.299 0.299 0.299 0.299 0.298 0.298 0.298 0.298 0.298 0.297 0.297 0.298 0.298 0.297 0.297 0.297 0.3 0.3 0.307 0.319 0.318 0.318 0.319 0.319 0.319 0.319 0.319 0.319 0.319 0.319 0.319 0.318 0.318 0.318 0.317 0.317 0.316 0.315 0.315 0.313 0.312 0.312 0.311 0.311 0.31 0.309 0.309 0.309 0.308 0.308 0.308 0 0 0 0 0 0 0 0 0 0 0 0 0 0 0 0 0 0 0 0 0 0 0 0 0 0 0 0 0 0 0 0 0 0 0 0 0 0 0 0 0 0 0 0 0 0 0 0
6.65 6.65 6.65 6.65 6.65 6.65 6.65 6.65 6.65 6.65 6.65 6.65 6.65 6.723 6.723 6.723 6.723 6.723 6.723 6.723 6.723 6.723 6.723 6.723 6.723 6.723 6.723 6.723 6.723 6.723 6.723 6.723 6.723 6.723 6.723 6.798 6.798 6.874 6.874 6.874 6.952 6.952 6.952 6.952 6.874 6.874 6.874 6.798 6.798 6.723 6.723 6.723 6.723 6.723 6.65 6.65 6.65 6.65 6.65 6.65 6.65 6.723 6.723 6.723 6.798 6.798 6.874 6.874 6.874 6.952 6.952 6.952 7.032 7.032 7.032 7.032 6.952 6.952 6.952 6.952 6.952 6.952 6.874 6.874 6.874 6.874 6.798 6.723 6.723 6.65 6.44 6.44 6.243 6.243 5.883 5.613 5.613 5.274 5.274 0 4.855 4.855 4.635 4.466 4.466 4.37 4.278 4.278 4.219 4.219 4.219 4.19 4.19 4.19 4.19 4.219 4.219 4.278 4.249 4.162 4.162 4.106 4.025 4.025 3.973 3.973 3.872 3.753 3.753 3.663 3.599 3.599 3.557 3.557 3.557 3.536 3.536 3.516 3.516 3.516 3.516 0 0 0 0 0 0 0 0 0 0 0 0 0 0 0 0 0 0 0 0 0 0 0 0 0 0 0 0 0 0 0 0 0 0 0 0 0 0 0 0 0 0 0 0 0 0 0.291 0.291 0.291 0.291 0.292 0.292 0.292 0.292 0.292 0.293 0.293 0.293 0.294 0.294 0.295 0.296 0.296 0.297 0.298 0.298 0.299 0.299 0.3 0.3 0.3 0.3 0.3 0.299 0.299 0.298 0.297 0.297 0.296 0.296 0.296 0.295 0.295 0.294 0.293 0.293 0.293 0.293 0.293 0.293 0.294 0.294 0 0 0 0.299 0.299 0.299 0.301 0.301 0.301 0.301 0.3 0.298 0.298 0.298 0 0 0.292 0.292 0.292 0.287 0.287 0.287 0.286 0.286 0.286 0.286 0.286 0.286 0.286 0.286 0.286 0.287 0.287 0.287 0.287 0.287 0.287 0.287 0.287 0.287 0.287 0.288 0.288 0.288 0.288 0.288 0.288 0.289 0.289 0.289 0.289 0.289 0.289 0.289 0.29 0.29 0.29 0.29 0.29 0.29 0.29 0.29 0.29 0.291 0.291 0.291 0.291 0.291 0.291 0.291 0.291 0.291 0.291 0.291 0.291 0.291 0.291 0.291 0.291 0.292 0.292 0.292 0.292 0.292 0.292 0.292 0.293 0.293 0.293 0.293 0.293 0.293 0.293 0.293 0.293 0.294 0.294 0.294 0.294 0.294 0.294 0.294 0.294 0.294 0.294 0.294 0.294 0.294 0.294 0.294 0.294 0.295 0.295 0.295 0.295 0.295 0.295 0.295 0.295 0.295 0.295 0.295 0.295 0.295 0.296 0.296 0.296 0.296 0.296 0.296 0.296 0.296 0.297 0.297 0.297 0.297 0.297 0.297 0.297 0.297 0.297 0.297 0.298 0.298 0.298 0.298 0.298 0.298 0.299 0.299 0.299 0.299 0.298 0.298 0.298 0.297 0.297 0.297 0.297 0.297 0.297 0.296 0.296 0.296 0.297 0.297 0.307 0 0.318 0.318 0.319 0.319 0.319 0.319 0.319 0.319 0.319 0.319 0.319 0.318 0.318 0.318 0.317 0.317 0.316 0.315 0.315 0.313 0.312 0.312 0.311 0.311 0.31 0.309 0.309 0.308 0.308 0.308 0.308 0 0 0 0 0 0 0 0 0 0 0 0 0 0 0 0 0 0 0 0 0 0 0 0 0 0 0 0 0 0 0 0 0 0 0 0 0 0 0 0 0 0 0 0 0 0 0 0
6.65 6.65 6.65 6.65 6.65 6.65 6.65 6.65 6.65 6.65 6.65 6.65 6.65 6.723 6.723 6.723 6.723 6.723 6.723 6.723 6.723 6.723 6.723 6.723 6.723 6.723 6.723 6.723 6.723 6.723 6.723 6.723 6.723 6.723 6.723 6.798 6.798 6.874 6.874 6.874 6.952 6.952 6.952 6.952 6.874 6.874 6.874 6.798 6.798 6.723 6.723 6.723 6.723 6.723 6.65 6.65 6.65 6.65 6.65 6.65 6.65 6.723 6.723 6.798 6.798 6.798 6.874 6.952 6.952 6.952 6.952 7.032 7.032 7.032 7.032 7.032 7.032 7.032 6.952 6.952 6.952 6.952 6.874 6.874 6.874 6.874 6.798 6.798 6.798 6.798 6.65 6.65 6.508 6.508 6.243 5.94 5.94 5.665 5.665 0 4.855 4.855 4.635 4.466 4.466 4.37 4.278 4.278 4.219 4.219 4.219 4.19 4.19 4.19 4.19 4.219 4.219 4.278 4.249 4.162 4.162 4.106 4.025 4.025 3.973 3.973 3.872 3.776 3.776 3.663 3.599 3.599 3.557 3.536 3.536 3.536 3.536 3.516 3.516 3.516 3.516 0 0 0 0 0 0 0 0 0 0 0 0 0 0 0 0 0 0 0 0 0 0 0 0 0 0 0 0 0 0 0 0 0 0 0 0 0 0 0 0 0 0 0 0 0.291 0.291 0.291 0.291 0.291 0.291 0.292 0.292 0.292 0.292 0.292 0.293 0.293 0.293 0.294 0.294 0.295 0.296 0.296 0.297 0.299 0.299 0.3 0.3 0.301 0.301 0.301 0.3 0.3 0.3 0.3 0.298 0.297 0.297 0.297 0.296 0.296 0.295 0.295 0.294 0.294 0.294 0.293 0.293 0.293 0.293 0.294 0.294 0 0 0 0.3 0.3 0.3 0.302 0.302 0.3 0.3 0.299 0.298 0.298 0.298 0 0 0.292 0.292 0.289 0.287 0.287 0.286 0.285 0.285 0.285 0.286 0.286 0.286 0.286 0.286 0.286 0.286 0.286 0.286 0.286 0.287 0.287 0.287 0.287 0.287 0.287 0.287 0.287 0.287 0.287 0.287 0.288 0.288 0.288 0.288 0.288 0.289 0.289 0.289 0.289 0.289 0.289 0.29 0.29 0.29 0.29 0.29 0.29 0.29 0.29 0.29 0.29 0.29 0.29 0.29 0.291 0.291 0.291 0.291 0.291 0.291 0.291 0.291 0.291 0.292 0.292 0.292 0.292 0.292 0.292 0.292 0.293 0.293 0.293 0.293 0.293 0.293 0.293 0.293 0.293 0.294 0.294 0.294 0.294 0.294 0.294 0.294 0.294 0.294 0.294 0.294 0.294 0.294 0.294 0.294 0.294 0.295 0.295 0.295 0.295 0.295 0.295 0.295 0.295 0.295 0.295 0.295 0.295 0.295 0.296 0.296 0.296 0.296 0.296 0.296 0.296 0.296 0.296 0.296 0.296 0.297 0.297 0.297 0.297 0.297 0.297 0.297 0.297 0.298 0.298 0.298 0.298 0.298 0.298 0.298 0.298 0.298 0.298 0.298 0.298 0.297 0.297 0.297 0.297 0.297 0.296 0.296 0.296 0.296 0.296 0.296 0.303 0 0.318 0.318 0.318 0.318 0.318 0.318 0.318 0.319 0.318 0.318 0.318 0.318 0.318 0.318 0.316 0.316 0.315 0.314 0.314 0.313 0.312 0.312 0.311 0.311 0.31 0.309 0.309 0.308 0.308 0.308 0.308 0 0 0 0 0 0 0 0 0 0 0 0 0 0 0 0 0 0 0 0 0 0 0 0 0 0 0 0 0 0 0 0 0 0 0 0 0 0 0 0 0 0 0 0 0 0 0 0
6.578 6.578 6.578 6.578 6.578 6.578 6.578 6.578 6.578 6.578 6.578 6.65 6.65 6.65 6.65 6.723 6.723 6.723 6.723 6.723 6.723 6.723 6.723 6.723 6.723 6.723 6.65 6.65 6.578 6.578 6.578 6.65 6.65 6.65 6.65 6.723 6.723 6.723 6.723 6.723 6.798 6.798 6.798 6.798 6.798 6.798 6.723 6.65 6.65 6.65 6.578 6.578 6.578 6.578 6.508 6.508 6.508 6.508 6.578 6.578 6.578 6.65 6.65 6.798 6.798 6.798 6.874 6.952 6.952 6.952 6.952 7.032 7.032 7.032 7.032 7.032 7.032 7.032 6.952 6.952 6.952 6.952 6.874 6.874 6.874 6.874 6.798 6.798 6.798 6.798 6.65 6.65 6.508 6.508 6.243 5.94 5.94 5.665 5.665 5.772 5.562 5.562 5.367 4.78 4.78 4.67 4.6 4.6 4.566 4.566 4.532 4.498 4.498 4.498 4.532 4.566 4.566 4.974 4.532 4.532 4.635 4.433 4.134 4.134 4.052 4.052 3.947 3.8 3.8 3.663 3.599 3.599 3.557 3.536 3.536 3.536 3.536 3.536 3.516 3.516 3.516 0 0 0 0 0 0 0 0 0 0 0 0 0 0 0 0 0 0 0 0 0 0 0 0 0 0 0 0 0 0 0 0 0 0 0 0 0 0 0 0 0 0.29 0.29 0.29 0.291 0.291 0.291 0.291 0.291 0.291 0.292 0.292 0.292 0.292 0.292 0.292 0.293 0.293 0.294 0.294 0.295 0.296 0.296 0.297 0.299 0.299 0.3 0.3 0.301 0.301 0.301 0.301 0.301 0.3 0.3 0.298 0.297 0.297 0.297 0.296 0.296 0.295 0.295 0.294 0.293 0.293 0.293 0.293 0.293 0.293 0.293 0.293 0 0 0 0 0 0 0.302 0.302 0.3 0.3 0.299 0.297 0.297 0.295 0.293 0.293 0.291 0.291 0.288 0.287 0.287 0.286 0.285 0.285 0.285 0.286 0.286 0.286 0.286 0.286 0.286 0.286 0.286 0.286 0.286 0.287 0.287 0.287 0.287 0.287 0.287 0.287 0.287 0.287 0.287 0.287 0.288 0.288 0.288 0.288 0.288 0.288 0.288 0.288 0.288 0.289 0.289 0.289 0.289 0.289 0.289 0.289 0.29 0.29 0.29 0.29 0.29 0.29 0.29 0.29 0.29 0.29 0.29 0.291 0.291 0.291 0.291 0.291 0.291 0.291 0.291 0.292 0.292 0.292 0.292 0.292 0.292 0.293 0.293 0.293 0.293 0.293 0.293 0.293 0.293 0.293 0.293 0.294 0.294 0.294 0.294 0.294 0.294 0.294 0.294 0.294 0.294 0.294 0.294 0.294 0.294 0.294 0.294 0.294 0.294 0.294 0.295 0.295 0.295 0.295 0.295 0.295 0.295 0.295 0.295 0.295 0.295 0.295 0.295 0.296 0.296 0.296 0.296 0.296 0.296 0.297 0.297 0.297 0.297 0.297 0.297 0.297 0.297 0.298 0.298 0.298 0.298 0.298 0.298 0.298 0.298 0.298 0.298 0.298 0.298 0.297 0.297 0.297 0.297 0.297 0.296 0.296 0.296 0.296 0.296 0.296 0.303 0 0.318 0.318 0.318 0.318 0.318 0.318 0.318 0.318 0.318 0.318 0.318 0.318 0.318 0.318 0.316 0.316 0.315 0.314 0.314 0.313 0.312 0.312 0.31 0.31 0.31 0.309 0.309 0.308 0.307 0.307 0.307 0 0 0 0 0 0 0 0 0 0 0 0 0 0 0 0 0 0 0 0 0 0 0 0 0 0 0 0 0 0 0 0 0 0 0 0 0 0 0 0 0 0 0 0 0 0 0 0
6.578 6.578 6.578 6.578 6.578 6.578 6.578 6.578 6.578 6.578 6.578 6.578 6.578 6.65 6.65 6.723 6.723 6.723 6.723 6.723 6.723 6.723 6.723 6.65 6.65 6.578 6.578 6.578 6.508 6.508 6.508 6.508 6.508 6.508 6.578 6.578 6.578 6.65 6.65 6.65 6.723 6.723 6.723 6.723 6.65 6.65 6.65 6.578 6.578 6.508 6.508 6.508 6.508 6.508 6.44 6.44 6.44 6.44 6.508 6.508 6.508 6.65 6.65 6.723 6.874 6.874 6.874 6.952 6.952 7.032 7.032 7.032 7.114 7.114 7.032 7.032 7.032 7.032 6.952 6.952 6.952 6.952 6.874 6.874 6.874 6.874 6.874 6.798 6.798 6.798 6.798 6.798 6.723 6.723 6.508 6.243 6.243 5.998 5.772 5.772 5.562 5.562 5.367 5.185 5.185 5.098 4.974 4.974 4.934 4.934 4.894 4.894 4.894 4.894 4.934 4.974 4.974 4.974 4.855 4.635 4.635 4.433 4.278 4.278 4.052 4.052 3.947 3.8 3.8 3.663 3.578 3.578 3.557 3.536 3.536 3.536 3.536 3.536 3.496 3.496 3.496 0 0 0 0 0 0 0 0 0 0 0 0 0 0 0 0 0 0 0 0 0 0 0 0 0 0 0 0 0 0 0 0 0 0 0 0 0 0 0 0 0 0.29 0.29 0.29 0.291 0.291 0.291 0.291 0.291 0.291 0.292 0.292 0.292 0.292 0.292 0.292 0.293 0.293 0.294 0.294 0.295 0.296 0.296 0.297 0.299 0.299 0.3 0.3 0.301 0.301 0.301 0.301 0.301 0.3 0.3 0.298 0.298 0.298 0.297 0.296 0.296 0.295 0.295 0.294 0.293 0.293 0.293 0.293 0.293 0.293 0.293 0.293 0 0 0 0 0 0.302 0.302 0.302 0.3 0.3 0.298 0.297 0.297 0.294 0.293 0.293 0.291 0.291 0.288 0.287 0.287 0.286 0.285 0.285 0.285 0.285 0.285 0.285 0.285 0.285 0.285 0.286 0.286 0.286 0.286 0.286 0.286 0.286 0.286 0.287 0.287 0.287 0.287 0.287 0.287 0.287 0.287 0.287 0.287 0.288 0.288 0.288 0.288 0.288 0.288 0.289 0.289 0.289 0.289 0.289 0.289 0.289 0.29 0.29 0.29 0.29 0.29 0.29 0.29 0.29 0.29 0.29 0.29 0.291 0.291 0.291 0.291 0.291 0.291 0.291 0.291 0.292 0.292 0.292 0.292 0.292 0.292 0.293 0.293 0.293 0.293 0.293 0.293 0.293 0.293 0.293 0.293 0.293 0.293 0.293 0.293 0.293 0.293 0.293 0.293 0.293 0.294 0.294 0.294 0.294 0.294 0.294 0.294 0.294 0.294 0.294 0.294 0.294 0.294 0.295 0.295 0.295 0.295 0.295 0.295 0.295 0.295 0.295 0.295 0.295 0.296 0.296 0.296 0.296 0.296 0.296 0.296 0.296 0.297 0.297 0.297 0.297 0.297 0.297 0.297 0.298 0.298 0.298 0.298 0.298 0.298 0.298 0.298 0.297 0.297 0.297 0.297 0.297 0.297 0.297 0.296 0.296 0.296 0.296 0.296 0.296 0.298 0 0.316 0.316 0.317 0.317 0.318 0.318 0.318 0.318 0.318 0.318 0.318 0.318 0.317 0.317 0.316 0.316 0.315 0.314 0.314 0.312 0.311 0.311 0.31 0.31 0.309 0.308 0.308 0.307 0.307 0.307 0.307 0 0 0 0 0 0 0 0 0 0 0 0 0 0 0 0 0 0 0 0 0 0 0 0 0 0 0 0 0 0 0 0 0 0 0 0 0 0 0 0 0 0 0 0 0 0 0 0
6.578 6.508 6.508 6.508 6.508 6.508 6.508 6.508 6.508 6.508 6.578 6.578 6.578 6.65 6.65 6.723 6.723 6.723 6.723 6.723 6.723 6.723 6.723 6.65 6.65 6.578 6.578 6.578 6.508 6.508 6.508 6.508 6.508 6.508 6.578 6.578 6.578 6.65 6.65 6.65 6.723 6.723 6.723 6.723 6.65 6.65 6.65 6.578 6.578 6.508 6.508 6.508 6.508 6.508 6.44 6.44 6.44 6.44 6.508 6.508 6.508 6.65 6.65 6.723 6.874 6.874 6.952 7.032 7.032 7.032 7.032 7.114 7.114 7.114 7.114 7.114 7.114 7.114 7.114 7.032 7.032 7.032 7.032 7.032 6.952 6.952 6.952 6.874 6.874 6.874 6.874 6.874 6.874 6.874 6.723 6.578 6.578 6.373 5.772 5.772 5.562 5.562 5.367 5.185 5.185 5.098 4.974 4.974 4.934 4.934 4.894 4.894 4.894 4.894 4.934 4.974 4.974 4.974 4.855 4.635 4.635 4.433 4.278 4.278 4.134 4.134 3.973 3.8 3.8 3.663 3.578 3.578 3.557 3.557 3.557 3.536 3.536 3.536 3.496 3.496 3.496 0 0 0 0 0 0 0 0 0 0 0 0 0 0 0 0 0 0 0 0 0 0 0 0 0 0 0 0 0 0 0 0 0 0 0 0 0 0 0 0.29 0.29 0.29 0.29 0.29 0.291 0.291 0.291 0.291 0.291 0.291 0.291 0.291 0.292 0.292 0.292 0.292 0.293 0.293 0.294 0.294 0.295 0 0 0.299 0.299 0.299 0.3 0.3 0.301 0.301 0.301 0.301 0.301 0.3 0.3 0.299 0.298 0.298 0.297 0.296 0.296 0.295 0.295 0.294 0.293 0.293 0.292 0.292 0.293 0.293 0.293 0.293 0 0 0 0 0 0.302 0.302 0.302 0.3 0.3 0.298 0.298 0 0.294 0.292 0.292 0.29 0.29 0.287 0.286 0.286 0.285 0.285 0.285 0.285 0.285 0.285 0.285 0.285 0.285 0.285 0.285 0.285 0.285 0.285 0.286 0.286 0.286 0.286 0.286 0.286 0.286 0.286 0.286 0.286 0.286 0.287 0.287 0.287 0.287 0.287 0.287 0.288 0.288 0.288 0.288 0.288 0.288 0.288 0.289 0.289 0.289 0.289 0.289 0.289 0.289 0.289 0.289 0.29 0.29 0.29 0.29 0.29 0.29 0.29 0.29 0.29 0.29 0.291 0.291 0.291 0.291 0.291 0.291 0.292 0.292 0.292 0.292 0.292 0.292 0.292 0.293 0.293 0.293 0.293 0.293 0.293 0.293 0.293 0.293 0.293 0.293 0.293 0.293 0.293 0.293 0.294 0.294 0.294 0.294 0.294 0.294 0.294 0.294 0.294 0.294 0.294 0.294 0.294 0.295 0.295 0.295 0.295 0.295 0.295 0.295 0.295 0.295 0.295 0.295 0.296 0.296 0.296 0.296 0.296 0.296 0.296 0.296 0.297 0.297 0.297 0.297 0.297 0.297 0.297 0.297 0.298 0.298 0.298 0.298 0.298 0.298 0.298 0.297 0.297 0.297 0.297 0.297 0.297 0.297 0.296 0.296 0.296 0.296 0.296 0.296 0.298 0 0.316 0.315 0.315 0.315 0.316 0.318 0.318 0.318 0.318 0.318 0.318 0.317 0.317 0.317 0.316 0.316 0.315 0.313 0.313 0.312 0.311 0.311 0.31 0.31 0.309 0.308 0.308 0.307 0.307 0.307 0.307 0 0 0 0 0 0 0 0 0 0 0 0 0 0 0 0 0 0 0 0 0 0 0 0 0 0 0 0 0 0 0 0 0 0 0 0 0 0 0 0 0 0 0 0 0 0 0 0
6.508 6.44 6.373 6.373 6.373 6.373 6.373 6.44 6.44 6.44 6.508 6.578 6.578 6.65 6.65 6.65 6.65 6.65 6.723 6.723 6.723 6.723 6.723 6.65 6.65 6.578 6.508 6.508 6.44 6.44 6.44 6.508 6.508 6.508 6.508 6.578 6.578 6.578 6.578 6.65 6.723 6.723 6.65 6.65 6.65 6.65 6.578 6.508 6.508 6.508 6.44 6.44 6.373 6.373 6.373 6.373 6.373 6.373 6.44 6.508 6.508 6.65 6.65 6.723 6.874 6.874 6.952 7.032 7.032 7.032 7.032 7.114 7.114 7.114 7.114 7.114 7.114 7.114 7.114 7.032 7.032 7.032 7.032 7.032 6.952 6.952 6.952 6.874 6.874 6.874 6.874 6.874 6.874 6.874 6.723 6.578 6.578 6.373 6.18 6.18 5.998 5.998 5.827 5.665 5.665 5.512 5.414 5.414 5.367 5.367 5.32 5.274 5.274 5.274 5.32 5.367 5.32 5.32 5.185 4.855 4.855 4.566 4.339 4.339 4.339 0 3.999 3.824 3.824 3.685 3.578 3.578 3.557 3.557 3.557 3.536 3.536 3.536 3.496 3.496 3.496 0 0 0 0 0 0 0 0 0 0 0 0 0 0 0 0 0 0 0 0 0 0 0 0 0 0 0 0 0 0 0 0 0 0 0 0 0 0 0 0.29 0.29 0.29 0.29 0.29 0.291 0.291 0.291 0.291 0.291 0.291 0.291 0.291 0.292 0.292 0.292 0.292 0.293 0.293 0.294 0.294 0.295 0 0.298 0.298 0.299 0.299 0.3 0.3 0.301 0.301 0.301 0.302 0.302 0.3 0.3 0.299 0.298 0.298 0.296 0.295 0.295 0.295 0.295 0.294 0.293 0.293 0.292 0.292 0.292 0.292 0.292 0.292 0 0 0 0 0 0.303 0.302 0.302 0.3 0.3 0.296 0.296 0 0.294 0.29 0.29 0.29 0.29 0.287 0.286 0.286 0.285 0.285 0.285 0.285 0.285 0.285 0.285 0.285 0.285 0.285 0.285 0.285 0.285 0.285 0.286 0.286 0.286 0.286 0.286 0.286 0.286 0.286 0.286 0.286 0.286 0.287 0.287 0.287 0.287 0.287 0.287 0.288 0.288 0.288 0.288 0.288 0.288 0.288 0.289 0.289 0.289 0.289 0.289 0.289 0.289 0.289 0.289 0.289 0.289 0.289 0.29 0.29 0.29 0.29 0.29 0.29 0.29 0.29 0.291 0.291 0.291 0.291 0.291 0.291 0.291 0.292 0.292 0.292 0.292 0.292 0.292 0.293 0.293 0.293 0.293 0.293 0.293 0.293 0.293 0.293 0.293 0.293 0.293 0.293 0.293 0.293 0.293 0.293 0.293 0.293 0.294 0.294 0.294 0.294 0.294 0.294 0.294 0.294 0.294 0.294 0.294 0.294 0.294 0.295 0.295 0.295 0.295 0.295 0.295 0.295 0.295 0.296 0.296 0.296 0.296 0.296 0.296 0.296 0.296 0.297 0.297 0.297 0.297 0.297 0.297 0.298 0.298 0.298 0.298 0.298 0.298 0.298 0.297 0.297 0.297 0.297 0.297 0.296 0.296 0.296 0.296 0.296 0.296 0.296 0.296 0.298 0 0 0.315 0.315 0.315 0.316 0.318 0.318 0.318 0.318 0.318 0.318 0.317 0.317 0.317 0.316 0.316 0.315 0.313 0.313 0.312 0.311 0.311 0.309 0.309 0.309 0.308 0.308 0.307 0.307 0.307 0.307 0 0 0 0 0 0 0 0 0 0 0 0 0 0 0 0 0 0 0 0 0 0 0 0 0 0 0 0 0 0 0 0 0 0 0 0 0 0 0 0 0 0 0 0 0 0 0 0
6.508 6.44 6.373 6.373 6.373 6.373 6.373 6.44 6.44 6.44 6.508 6.578 6.578 6.65 6.65 6.65 6.65 6.65 6.723 6.723 6.723 6.723 6.723 6.65 6.65 6.578 6.508 6.508 6.44 6.44 6.44 6.508 6.508 6.508 6.508 6.578 6.578 6.578 6.578 6.65 6.723 6.723 6.65 6.65 6.65 6.65 6.578 6.508 6.508 6.508 6.44 6.44 6.373 6.373 6.373 6.373 6.373 6.373 6.44 6.508 6.508 6.65 6.65 6.723 6.874 6.874 7.032 7.114 7.114 7.197 7.197 7.197 7.283 7.283 7.283 7.283 7.283 7.283 7.283 7.197 7.197 7.197 7.114 7.114 7.032 7.032 6.952 6.952 6.952 6.874 6.874 6.874 6.874 6.874 6.798 6.723 6.723 6.578 6.44 6.44 6.373 6.373 6.243 6.057 6.057 5.998 5.883 5.883 5.827 5.827 5.772 5.718 5.718 5.718 5.718 5.772 5.718 5.562 5.562 5.141 5.141 4.743 4.339 4.339 4.339 0 3.999 3.824 3.824 3.685 3.578 3.578 3.557 3.557 3.557 3.536 3.536 3.536 3.496 3.496 3.496 0 0 0 0 0 0 0 0 0 0 0 0 0 0 0 0 0 0 0 0 0 0 0 0 0 0 0 0 0 0 0 0 0 0 0 0 0 0 0.29 0.29 0.29 0.29 0.29 0.29 0.29 0.29 0.29 0.291 0.291 0.291 0.291 0.291 0.292 0.292 0.292 0.292 0.293 0.293 0.294 0.294 0.295 0 0.298 0.298 0.299 0.299 0.3 0.3 0.301 0.301 0.301 0.302 0.302 0.3 0.3 0.299 0.298 0.298 0.296 0.295 0.295 0.295 0.295 0.294 0.293 0.293 0.292 0.292 0.292 0.292 0.292 0.292 0 0 0 0 0 0.303 0.302 0.302 0.3 0.3 0.296 0.296 0 0 0.29 0.29 0.289 0.289 0.287 0.285 0.285 0.285 0.285 0.285 0.285 0.285 0.285 0.285 0.285 0.285 0.285 0.285 0.285 0.285 0.285 0.285 0.285 0.285 0.285 0.286 0.286 0.286 0.286 0.286 0.286 0.286 0.286 0.286 0.286 0.287 0.287 0.287 0.287 0.287 0.287 0.287 0.287 0.288 0.288 0.288 0.288 0.288 0.289 0.289 0.289 0.289 0.289 0.289 0.289 0.289 0.289 0.29 0.29 0.29 0.29 0.29 0.29 0.29 0.29 0.291 0.291 0.291 0.291 0.291 0.291 0.291 0.292 0.292 0.292 0.292 0.292 0.292 0.293 0.293 0.293 0.293 0.293 0.293 0.293 0.293 0.293 0.293 0.293 0.293 0.293 0.293 0.293 0.293 0.293 0.293 0.293 0.294 0.294 0.294 0.294 0.294 0.294 0.294 0.294 0.294 0.294 0.294 0.294 0.294 0.294 0.294 0.294 0.295 0.295 0.295 0.295 0.295 0.295 0.295 0.296 0.296 0.296 0.296 0.296 0.296 0.296 0.296 0.297 0.297 0.297 0.297 0.297 0.297 0.297 0.297 0.298 0.298 0.297 0.297 0.297 0.297 0.297 0.296 0.296 0.296 0.296 0.296 0.296 0.296 0.296 0.296 0.298 0 0 0.315 0.315 0.315 0.316 0.316 0.317 0.317 0.317 0.317 0.317 0.317 0.316 0.316 0.316 0.316 0.314 0.313 0.313 0.312 0.311 0.311 0.309 0.309 0.309 0.308 0.308 0.307 0.307 0.307 0.307 0 0 0 0 0 0 0 0 0 0 0 0 0 0 0 0 0 0 0 0 0 0 0 0 0 0 0 0 0 0 0 0 0 0 0 0 0 0 0 0 0 0 0 0 0 0 0 0
6.373 6.373 6.307 6.307 6.307 6.307 6.307 6.307 6.373 6.373 6.44 6.508 6.508 6.578 6.578 6.65 6.65 6.65 6.723 6.723 6.723 6.723 6.65 6.65 6.65 6.578 6.44 6.44 6.44 6.44 6.44 6.44 6.44 6.44 6.44 6.578 6.578 6.578 6.578 6.65 6.723 6.65 6.65 6.65 6.578 6.578 6.508 6.44 6.44 6.373 6.307 6.307 6.307 6.307 6.243 6.243 6.307 6.307 6.373 6.44 6.44 6.578 6.578 6.723 6.874 6.874 7.114 7.197 7.197 7.283 7.283 7.371 7.371 7.371 7.371 7.461 7.461 7.461 7.371 7.371 7.371 7.283 7.197 7.197 7.197 7.197 7.114 6.952 6.952 6.952 6.874 6.874 6.874 6.874 6.874 6.723 6.723 6.578 6.44 6.44 6.373 6.373 6.243 6.057 6.057 5.998 5.883 5.883 5.827 5.827 5.772 5.718 5.718 5.718 5.718 5.772 5.718 5.562 5.562 5.141 5.141 4.743 4.433 4.433 4.433 0 4.025 3.848 3.848 3.685 3.578 3.578 3.557 3.557 3.557 3.536 3.536 3.536 3.516 3.516 3.516 0 0 0 0 0 0 0 0 0 0 0 0 0 0 0 0 0 0 0 0 0 0 0 0 0 0 0 0 0 0 0 0 0 0 0 0 0 0 0.289 0.289 0.289 0.289 0.29 0.29 0.29 0.29 0.29 0.29 0.291 0.291 0.291 0.291 0.291 0.292 0.292 0.292 0.293 0.293 0.294 0.294 0.295 0 0.298 0.298 0.3 0.3 0.3 0.3 0.301 0.302 0.302 0.302 0.302 0.301 0.301 0.299 0.298 0.298 0.297 0.295 0.295 0.295 0.295 0.294 0.293 0.293 0.292 0.292 0.292 0.292 0.292 0.292 0 0 0 0 0 0 0 0 0 0 0.295 0.293 0.293 0.291 0.29 0.29 0.288 0.288 0.286 0.285 0.285 0.285 0.285 0.285 0.285 0.285 0.285 0.285 0.285 0.285 0.285 0.285 0.285 0.285 0.285 0.285 0.285 0.285 0.285 0.286 0.286 0.286 0.286 0.286 0.286 0.286 0.286 0.286 0.286 0.286 0.286 0.286 0.286 0.286 0.287 0.287 0.287 0.287 0.287 0.288 0.288 0.288 0.288 0.288 0.288 0.288 0.288 0.289 0.289 0.289 0.289 0.289 0.289 0.289 0.289 0.29 0.29 0.29 0.29 0.29 0.29 0.29 0.29 0.291 0.291 0.291 0.291 0.292 0.292 0.292 0.292 0.292 0.292 0.292 0.293 0.293 0.293 0.293 0.293 0.293 0.293 0.293 0.293 0.293 0.293 0.293 0.293 0.293 0.293 0.293 0.293 0.294 0.294 0.294 0.294 0.294 0.294 0.294 0.294 0.294 0.294 0.294 0.294 0.294 0.294 0.294 0.294 0.295 0.295 0.295 0.295 0.295 0.295 0.295 0.296 0.296 0.296 0.296 0.296 0.296 0.296 0.296 0.297 0.297 0.297 0.297 0.297 0.297 0.297 0.297 0.298 0.298 0.297 0.297 0.297 0.297 0.297 0.296 0.296 0.296 0.296 0.296 0.296 0.296 0.296 0.296 0.298 0.304 0.304 0 0 0.315 0.315 0.315 0.316 0.317 0.317 0.317 0.317 0.316 0.316 0.316 0.315 0.315 0.314 0.313 0.313 0.312 0.311 0.311 0.309 0.309 0.308 0.307 0.307 0.307 0.306 0.306 0.306 0 0 0 0 0 0 0 0 0 0 0 0 0 0 0 0 0 0 0 0 0 0 0 0 0 0 0 0 0 0 0 0 0 0 0 0 0 0 0 0 0 0 0 0 0 0 0 0
6.307 6.243 6.243 6.243 6.243 6.243 6.243 6.243 6.307 6.307 6.373 6.508 6.508 6.578 6.578 6.65 6.65 6.65 6.723 6.723 6.723 6.723 6.65 6.578 6.578 6.508 6.44 6.44 6.373 6.373 6.373 6.44 6.44 6.44 6.44 6.508 6.508 6.578 6.578 6.65 6.65 6.65 6.65 6.65 6.578 6.578 6.44 6.44 6.44 6.307 6.243 6.243 6.18 6.18 6.18 6.18 6.243 6.243 6.307 6.44 6.44 6.578 6.578 6.723 6.874 6.874 7.114 7.197 7.197 7.283 7.283 7.371 7.371 7.371 7.371 7.461 7.461 7.461 7.371 7.371 7.371 7.283 7.197 7.197 7.197 7.197 7.114 6.952 6.952 6.952 6.874 6.874 6.874 6.874 6.874 6.798 6.798 6.798 6.723 6.723 6.65 6.65 6.65 6.578 6.578 6.508 6.44 6.44 6.373 6.373 6.243 6.18 6.18 6.18 6.18 6.243 6.118 5.998 5.998 5.462 5.462 4.934 4.532 4.532 4.532 0 4.052 3.872 3.872 3.685 3.578 3.578 3.557 3.557 3.557 3.536 3.536 3.516 3.516 3.516 3.516 0 0 0 0 0 0 0 0 0 0 0 0 0 0 0 0 0 0 0 0 0 0 0 0 0 0 0 0 0 0 0 0 0 0 0 0 0 0 0.289 0.289 0.289 0.289 0.29 0.29 0.29 0.29 0.29 0.29 0.291 0.291 0.291 0.291 0.291 0.292 0.292 0.292 0.293 0.293 0.294 0.294 0 0 0.298 0.298 0.3 0.3 0.3 0.3 0.301 0.302 0.302 0.302 0.302 0.301 0.301 0.299 0.298 0.298 0.297 0.297 0 0.295 0.295 0.294 0.293 0.293 0.292 0.292 0.292 0.292 0.292 0.292 0 0 0 0 0 0 0 0 0 0 0.295 0.293 0.293 0.291 0.29 0.29 0.288 0.288 0.286 0.285 0.285 0.285 0.285 0.285 0.284 0.284 0.284 0.284 0.284 0.284 0.284 0.285 0.285 0.285 0.285 0.285 0.285 0.285 0.285 0.285 0.285 0.285 0.285 0.285 0.285 0.285 0.286 0.286 0.286 0.286 0.286 0.286 0.286 0.286 0.287 0.287 0.287 0.287 0.287 0.288 0.288 0.288 0.288 0.288 0.288 0.288 0.288 0.289 0.289 0.289 0.289 0.289 0.289 0.289 0.289 0.29 0.29 0.29 0.29 0.29 0.29 0.29 0.29 0.291 0.291 0.291 0.291 0.291 0.291 0.291 0.291 0.292 0.292 0.292 0.292 0.292 0.292 0.292 0.292 0.292 0.293 0.293 0.292 0.292 0.292 0.293 0.293 0.293 0.293 0.293 0.293 0.293 0.293 0.294 0.294 0.294 0.294 0.294 0.294 0.294 0.294 0.294 0.294 0.294 0.294 0.294 0.294 0.294 0.294 0.294 0.295 0.295 0.295 0.295 0.295 0.295 0.295 0.296 0.296 0.296 0.296 0.296 0.296 0.297 0.297 0.297 0.297 0.297 0.297 0.297 0.297 0.297 0.297 0.297 0.297 0.297 0.297 0.296 0.296 0.296 0.296 0.295 0.295 0.295 0.295 0.295 0.298 0.304 0.304 0.314 0.314 0.314 0.315 0.315 0.316 0.317 0.317 0.317 0.317 0.316 0.316 0.316 0.315 0.315 0.314 0.313 0.313 0.312 0.31 0.31 0.309 0.309 0.308 0.307 0.307 0.306 0.306 0.306 0.306 0 0 0 0 0 0 0 0 0 0 0 0 0 0 0 0 0 0 0 0 0 0 0 0 0 0 0 0 0 0 0 0 0 0 0 0 0 0 0 0 0 0 0 0 0 0 0 0
6.307 6.243 6.243 6.243 6.243 6.243 6.243 6.243 6.307 6.307 6.373 6.508 6.508 6.578 6.578 6.723 6.723 6.723 6.723 6.723 6.723 6.723 6.65 6.578 6.578 6.508 6.44 6.44 6.373 6.373 6.373 6.44 6.44 6.44 6.44 6.508 6.508 6.578 6.578 6.65 6.65 6.65 6.65 6.65 6.578 6.578 6.44 6.44 6.44 6.307 6.243 6.243 6.18 6.18 6.18 6.18 6.243 6.243 6.307 6.44 6.44 6.578 6.578 6.798 6.952 6.952 7.197 7.283 7.283 7.371 7.371 7.461 7.553 7.553 7.553 7.647 7.647 7.647 7.553 7.461 7.461 7.461 7.371 7.371 7.283 7.283 7.197 7.114 7.114 7.032 6.952 6.952 6.874 6.874 6.874 6.798 6.798 6.798 6.874 6.874 6.798 6.798 6.798 6.874 6.874 6.798 6.723 6.723 6.723 6.723 6.723 6.65 6.65 6.578 6.508 6.508 6.44 6.307 6.307 5.772 5.772 4.934 4.532 4.532 4.532 0 4.052 3.872 3.872 3.685 3.599 3.599 3.557 3.557 3.536 3.536 3.536 3.516 3.516 3.516 3.516 0 0 0 0 0 0 0 0 0 0 0 0 0 0 0 0 0 0 0 0 0 0 0 0 0 0 0 0 0 0 0 0 0 0 0 0 0 0 0.289 0.289 0.289 0.289 0.289 0.289 0.289 0.29 0.29 0.29 0.29 0.29 0.291 0.291 0.291 0.291 0.291 0.292 0.293 0.293 0 0 0 0 0.298 0.298 0.3 0.3 0.3 0.3 0.302 0.302 0.302 0.302 0.302 0.301 0.301 0.3 0.299 0.299 0.297 0.297 0 0.295 0.295 0.294 0.293 0.293 0.292 0.292 0.292 0.292 0.292 0.292 0 0 0 0 0 0 0 0 0 0 0 0 0 0.29 0.289 0.289 0.287 0.287 0.286 0.285 0.285 0.285 0.284 0.284 0.284 0.284 0.284 0.284 0.284 0.284 0.284 0.284 0.284 0.284 0.284 0.284 0.285 0.285 0.285 0.285 0.285 0.285 0.285 0.285 0.285 0.285 0.285 0.285 0.285 0.286 0.286 0.286 0.286 0.286 0.286 0.286 0.286 0.287 0.287 0.287 0.287 0.287 0.288 0.288 0.288 0.288 0.288 0.288 0.289 0.289 0.289 0.289 0.289 0.289 0.289 0.289 0.289 0.289 0.29 0.29 0.29 0.29 0.29 0.29 0.29 0.29 0.291 0.291 0.291 0.291 0.291 0.292 0.292 0.292 0.292 0.292 0.292 0.292 0.292 0.292 0.293 0.293 0.292 0.292 0.292 0.293 0.293 0.293 0.293 0.293 0.293 0.293 0.293 0.294 0.294 0.294 0.294 0.294 0.294 0.294 0.294 0.294 0.294 0.294 0.294 0.294 0.294 0.294 0.294 0.294 0.295 0.295 0.295 0.295 0.295 0.295 0.295 0.295 0.295 0.295 0.296 0.296 0.296 0.296 0.296 0.297 0.297 0.297 0.297 0.297 0.297 0.297 0.297 0.297 0.297 0.296 0.296 0.296 0.296 0.296 0.296 0.295 0.295 0.295 0.295 0.295 0.297 0.303 0.303 0.314 0.314 0.314 0.315 0.315 0.316 0.316 0.316 0.316 0.316 0.316 0.316 0.316 0.315 0.315 0.314 0.312 0.312 0.311 0.31 0.31 0.309 0.309 0.308 0.307 0.307 0.306 0.306 0.306 0.306 0 0 0 0 0 0 0 0 0 0 0 0 0 0 0 0 0 0 0 0 0 0 0 0 0 0 0 0 0 0 0 0 0 0 0 0 0 0 0 0 0 0 0 0 0 0 0 0
6.18 6.118 6.118 6.118 6.118 6.18 6.18 6.18 6.307 6.307 6.373 6.44 6.44 6.578 6.578 6.65 6.723 6.723 6.723 6.723 6.723 6.723 6.65 6.578 6.578 6.508 6.44 6.44 6.373 6.373 6.373 6.373 6.373 6.373 6.44 6.508 6.508 6.508 6.508 6.578 6.65 6.65 6.578 6.578 6.508 6.508 6.44 6.307 6.307 6.18 6.118 6.118 6.118 6.118 6.057 6.057 6.118 6.118 6.243 6.373 6.373 6.578 6.578 6.798 6.952 6.952 7.197 7.283 7.283 7.371 7.371 7.461 7.553 7.553 7.553 7.647 7.647 7.647 7.553 7.461 7.461 7.461 7.371 7.371 7.283 7.283 7.197 7.114 7.114 7.032 6.952 6.952 6.874 6.874 6.874 6.798 6.798 6.798 6.874 6.874 6.798 6.798 6.798 6.874 6.874 6.798 6.723 6.723 6.723 6.723 6.723 6.65 6.65 6.578 6.508 6.508 6.44 6.307 6.307 5.772 5.772 5.141 4.67 4.67 4.67 0 4.106 3.897 3.897 3.685 3.599 3.599 3.557 3.557 3.536 3.536 3.536 3.536 3.516 3.516 3.516 0 0 0 0 0 0 0 0 0 0 0 0 0 0 0 0 0 0 0 0 0 0 0 0 0 0 0 0 0 0 0 0 0 0 0 0 0 0 0 0.289 0.289 0.289 0.289 0.289 0.289 0.289 0.289 0.29 0.29 0.29 0.291 0.291 0.291 0.291 0.291 0.292 0.293 0.293 0 0 0 0 0.299 0.299 0.3 0.3 0.301 0.301 0.302 0.302 0.302 0.302 0.302 0.302 0.302 0.301 0.299 0.299 0.297 0.296 0.296 0.295 0.295 0.294 0.293 0.293 0.292 0.292 0.292 0.292 0.292 0.292 0 0 0 0 0 0 0 0 0 0 0 0 0 0.288 0.288 0.288 0.287 0.287 0.286 0.285 0.285 0.285 0.284 0.284 0.284 0.284 0.284 0.284 0.284 0.284 0.284 0.284 0.284 0.284 0.284 0.284 0.285 0.285 0.285 0.285 0.285 0.285 0.285 0.285 0.285 0.285 0.285 0.285 0.285 0.286 0.286 0.286 0.286 0.286 0.286 0.286 0.286 0.287 0.287 0.287 0.287 0.287 0.287 0.288 0.288 0.288 0.288 0.288 0.288 0.288 0.288 0.289 0.289 0.289 0.289 0.289 0.289 0.289 0.289 0.29 0.29 0.29 0.29 0.29 0.29 0.29 0.29 0.291 0.291 0.291 0.291 0.291 0.291 0.291 0.292 0.292 0.292 0.292 0.292 0.292 0.292 0.292 0.292 0.292 0.292 0.292 0.292 0.292 0.293 0.293 0.293 0.293 0.293 0.293 0.293 0.293 0.293 0.293 0.294 0.294 0.294 0.294 0.294 0.294 0.294 0.294 0.294 0.294 0.294 0.294 0.294 0.294 0.295 0.295 0.295 0.295 0.295 0.295 0.295 0.295 0.296 0.296 0.296 0.296 0.296 0.297 0.297 0.297 0.297 0.297 0.297 0.297 0.297 0.297 0.297 0.296 0.296 0.296 0.296 0.296 0.296 0.295 0.295 0.295 0.295 0.295 0.297 0.303 0.303 0 0 0.315 0.315 0.315 0.316 0.316 0.316 0.316 0.316 0.316 0.316 0.316 0.315 0.315 0.314 0.312 0.312 0.311 0.31 0.31 0.308 0.308 0.307 0.306 0.306 0.306 0.305 0.305 0.305 0 0 0 0 0 0 0 0 0 0 0 0 0 0 0 0 0 0 0 0 0 0 0 0 0 0 0 0 0 0 0 0 0 0 0 0 0 0 0 0 0 0 0 0 0 0 0 0
6.18 6.118 6.118 6.118 6.118 6.18 6.18 6.18 6.307 6.307 6.373 6.44 6.44 6.578 6.578 6.65 6.723 6.723 6.723 6.723 6.723 6.723 6.65 6.578 6.578 6.508 6.44 6.44 6.373 6.373 6.373 6.373 6.373 6.373 6.44 6.508 6.508 6.508 6.508 6.578 6.578 6.578 6.508 6.508 6.44 6.44 6.307 6.307 6.307 6.18 6.118 6.118 6.118 6.118 6.057 6.057 6.118 6.118 6.18 6.307 6.307 6.508 6.508 6.723 7.032 7.032 7.197 7.371 7.371 7.461 7.461 7.553 7.647 7.647 7.744 7.744 7.744 7.744 7.744 7.647 7.647 7.553 7.461 7.461 7.371 7.371 7.197 7.114 7.114 7.032 6.952 6.952 6.874 6.874 6.874 6.798 6.798 6.798 6.874 6.874 6.874 6.874 6.874 6.874 6.952 6.952 6.874 6.874 6.874 6.874 6.874 6.798 6.798 6.723 6.65 6.65 6.508 6.44 6.44 5.94 5.94 5.274 4.743 4.743 4.743 0 4.134 3.897 3.897 3.685 3.599 3.599 3.557 3.557 3.536 3.536 3.536 3.536 3.516 3.516 3.516 0 0 0 0 0 0 0 0 0 0 0 0 0 0 0 0 0 0 0 0 0 0 0 0 0 0 0 0 0 0 0 0 0 0 0 0 0 0 0 0.288 0.288 0.288 0.288 0.288 0.289 0.289 0.289 0.29 0.29 0.29 0.291 0.291 0.291 0.291 0.291 0.292 0 0 0 0 0.297 0.297 0.297 0.299 0.3 0.3 0.301 0.301 0.302 0.302 0.302 0.302 0.302 0.302 0.302 0.301 0.299 0.299 0.299 0.296 0.296 0.295 0.295 0.294 0.293 0.293 0.292 0.292 0.292 0.292 0.292 0.292 0 0 0 0 0 0 0 0 0 0 0 0 0 0.288 0.287 0.287 0.286 0.286 0.285 0.285 0.285 0.284 0.284 0.284 0.284 0.284 0.284 0.284 0.284 0.284 0.284 0.284 0.284 0.284 0.284 0.284 0.284 0.284 0.284 0.284 0.284 0.285 0.285 0.285 0.285 0.285 0.285 0.285 0.285 0.285 0.285 0.285 0.285 0.285 0.286 0.286 0.286 0.286 0.286 0.287 0.287 0.287 0.287 0.288 0.288 0.288 0.288 0.288 0.288 0.288 0.288 0.289 0.289 0.289 0.289 0.289 0.289 0.289 0.289 0.29 0.29 0.29 0.29 0.29 0.29 0.29 0.29 0.291 0.291 0.291 0.291 0.291 0.291 0.291 0.292 0.292 0.292 0.292 0.292 0.292 0.292 0.292 0.292 0.292 0.292 0.292 0.292 0.292 0.292 0.292 0.293 0.293 0.293 0.293 0.293 0.293 0.293 0.293 0.293 0.294 0.294 0.293 0.293 0.293 0.294 0.294 0.294 0.294 0.294 0.294 0.294 0.294 0.294 0.294 0.294 0.295 0.295 0.295 0.295 0.295 0.295 0.295 0.295 0.296 0.296 0.296 0.296 0.296 0.296 0.296 0.297 0.297 0.297 0.297 0.297 0.296 0.296 0.296 0.296 0.296 0.296 0.295 0.295 0.295 0.295 0.295 0.295 0 0 0 0 0.315 0.315 0.315 0.316 0.316 0.316 0.316 0.316 0.316 0.315 0.315 0.314 0.314 0.313 0.312 0.312 0.311 0.309 0.309 0.308 0.308 0.307 0.306 0.306 0.306 0.305 0.305 0.305 0 0 0 0 0 0 0 0 0 0 0 0 0 0 0 0 0 0 0 0 0 0 0 0 0 0 0 0 0 0 0 0 0 0 0 0 0 0 0 0 0 0 0 0 0 0 0 0
6.118 6.057 6.057 6.057 6.057 6.118 6.118 6.18 6.243 6.243 6.307 6.44 6.44 6.578 6.578 6.723 6.723 6.723 6.798 6.798 6.798 6.798 6.723 6.578 6.578 6.508 6.44 6.44 6.373 6.373 6.373 6.373 6.373 6.373 6.44 6.508 6.508 6.508 6.508 6.578 6.578 6.578 6.508 6.508 6.44 6.44 6.307 6.18 6.18 6.118 6.057 6.057 5.998 5.998 5.998 5.998 5.998 5.998 6.18 6.307 6.307 6.508 6.508 6.723 7.032 7.032 7.197 7.371 7.371 7.461 7.461 7.553 7.744 7.744 7.744 7.744 7.744 7.744 7.744 7.647 7.647 7.647 7.553 7.553 7.461 7.461 7.283 7.114 7.114 7.032 6.952 6.952 6.874 6.874 6.874 6.798 6.798 6.798 6.874 6.874 6.874 6.874 6.874 6.952 6.952 6.952 7.032 7.032 7.032 7.032 6.952 6.952 6.952 6.798 6.723 6.723 6.65 6.578 6.578 6.118 6.118 5.274 4.743 4.743 4.433 4.433 4.134 3.922 3.922 3.708 3.599 3.599 3.578 3.578 3.557 3.557 3.557 3.536 3.536 3.536 3.536 0 0 0 0 0 0 0 0 0 0 0 0 0 0 0 0 0 0 0 0 0 0 0 0 0 0 0 0 0 0 0 0 0 0 0 0.286 0.286 0.286 0.286 0.287 0.287 0.287 0.287 0.287 0.288 0.288 0.288 0.289 0.289 0.289 0.29 0.29 0.29 0.291 0.291 0.291 0.293 0.293 0.293 0.293 0.297 0.297 0.297 0.299 0.3 0.3 0.301 0.301 0.302 0.302 0.302 0.303 0.303 0.302 0.302 0.301 0.301 0 0 0 0 0 0 0.293 0.292 0.292 0.292 0.291 0.291 0.291 0.291 0.291 0 0 0 0 0 0 0 0 0 0 0 0 0 0.288 0.287 0.286 0.286 0.286 0.285 0.284 0.284 0.284 0.284 0.284 0.284 0.284 0.284 0.284 0.284 0.284 0.284 0.284 0.284 0.284 0.284 0.284 0.284 0.284 0.284 0.284 0.284 0.284 0.284 0.284 0.284 0.284 0.284 0.285 0.285 0.285 0.285 0.285 0.285 0.285 0.285 0.286 0.286 0.286 0.286 0.286 0.287 0.287 0.287 0.287 0.287 0.287 0.287 0.288 0.288 0.288 0.288 0.288 0.288 0.288 0.288 0.288 0.289 0.289 0.289 0.289 0.289 0.289 0.289 0.29 0.29 0.29 0.29 0.29 0.29 0.291 0.291 0.291 0.291 0.291 0.291 0.292 0.292 0.292 0.292 0.292 0.292 0.292 0.292 0.292 0.292 0.292 0.292 0.292 0.292 0.292 0.293 0.293 0.293 0.293 0.293 0.293 0.293 0.293 0.293 0.294 0.294 0.293 0.293 0.293 0.294 0.294 0.294 0.294 0.294 0.294 0.294 0.294 0.294 0.294 0.294 0.295 0.295 0.295 0.295 0.295 0.295 0.295 0.295 0.296 0.296 0.296 0.296 0.296 0.296 0.296 0.297 0.297 0.297 0.297 0.297 0.296 0.296 0.296 0.296 0.296 0.296 0.295 0.295 0.295 0.295 0.295 0.295 0.299 0.299 0 0 0.315 0.315 0.315 0.315 0.316 0.316 0.316 0.316 0.315 0.315 0.315 0.314 0.314 0.313 0.312 0.312 0.311 0.309 0.309 0.308 0.308 0.307 0.306 0.306 0.305 0.305 0.305 0.305 0 0 0 0 0 0 0 0 0 0 0 0 0 0 0 0 0 0 0 0 0 0 0 0 0 0 0 0 0 0 0 0 0 0 0 0 0 0 0 0 0 0 0 0 0 0 0 0
6.118 6.057 6.057 6.057 6.057 6.057 6.057 6.118 6.243 6.243 6.307 6.44 6.44 6.578 6.578 6.723 6.723 6.723 6.798 6.798 6.798 6.798 6.723 6.578 6.578 6.508 6.44 6.44 6.373 6.373 6.373 6.373 6.373 6.373 6.44 6.508 6.508 6.508 6.508 6.578 6.578 6.578 6.44 6.44 6.373 6.373 6.243 6.118 6.118 6.057 5.998 5.998 5.94 5.94 5.94 5.94 5.998 5.998 6.118 6.307 6.307 6.508 6.508 6.723 6.952 6.952 7.197 7.371 7.371 7.461 7.461 7.553 7.647 7.647 7.744 7.744 7.744 7.744 7.744 7.647 7.647 7.647 7.553 7.553 7.461 7.461 7.283 7.114 7.114 7.032 6.952 6.952 6.874 6.874 6.874 6.798 6.798 6.798 6.874 6.874 6.874 6.874 6.874 6.952 6.952 6.952 7.032 7.032 7.032 7.032 6.952 6.952 6.952 6.798 6.723 6.723 6.65 6.578 6.578 6.118 6.118 5.367 4.817 4.817 4.433 4.433 4.134 3.922 3.922 3.753 3.62 3.62 3.578 3.578 3.578 3.557 3.557 3.557 3.557 3.557 3.557 0 0 0 0 0 0 0 0 0 0 0 0 0 0 0 0 0 0 0 0 0 0 0 0 0 0 0 0 0 0 0 0 0 0 0 0.286 0.286 0.286 0.286 0.287 0.287 0.287 0.287 0.287 0.288 0.288 0.288 0.289 0.289 0.289 0.29 0.29 0.29 0.291 0.291 0.291 0.293 0.293 0.293 0.293 0.295 0.297 0.297 0.299 0.301 0.301 0.301 0.301 0.302 0.302 0.302 0.303 0 0.303 0.303 0.303 0 0 0 0 0 0 0 0.293 0.29 0.29 0.29 0.29 0.29 0.29 0.29 0.29 0 0 0 0 0 0 0 0 0 0 0 0 0 0 0 0.286 0.286 0.286 0.285 0.284 0.284 0.284 0.283 0.283 0.283 0.283 0.283 0.283 0.283 0.283 0.283 0.283 0.283 0.283 0.283 0.284 0.284 0.284 0.284 0.284 0.284 0.284 0.284 0.284 0.284 0.284 0.284 0.285 0.285 0.285 0.285 0.285 0.285 0.285 0.285 0.286 0.286 0.286 0.286 0.286 0.287 0.287 0.287 0.287 0.287 0.287 0.287 0.288 0.288 0.288 0.288 0.288 0.288 0.288 0.288 0.288 0.289 0.289 0.289 0.289 0.289 0.289 0.289 0.289 0.29 0.29 0.29 0.29 0.29 0.29 0.29 0.291 0.291 0.291 0.291 0.291 0.291 0.291 0.291 0.291 0.291 0.291 0.292 0.292 0.292 0.292 0.292 0.292 0.292 0.292 0.292 0.293 0.293 0.293 0.293 0.293 0.293 0.293 0.293 0.293 0.293 0.293 0.293 0.293 0.293 0.293 0.293 0.293 0.293 0.293 0.294 0.294 0.294 0.294 0.294 0.294 0.294 0.294 0.295 0.295 0.295 0.295 0.295 0.295 0.295 0.296 0.296 0.296 0.296 0.296 0.296 0.297 0.296 0.296 0.296 0.296 0.296 0.296 0.296 0.296 0.296 0.295 0.295 0.295 0.295 0.295 0.295 0.299 0.299 0 0 0.315 0.315 0.315 0.315 0.316 0.316 0.316 0.316 0.315 0.315 0.315 0.314 0.314 0.313 0.312 0.312 0.311 0.309 0.309 0.308 0.308 0.306 0.305 0.305 0.305 0.304 0.304 0.304 0.304 0.304 0.304 0 0 0 0 0 0 0 0 0 0 0 0 0 0 0 0 0 0 0 0 0 0 0 0 0 0 0 0 0 0 0 0 0 0 0 0 0 0 0 0 0 0 0 0 0
6.118 6.057 6.057 6.057 6.057 6.057 6.057 6.118 6.243 6.243 6.373 6.508 6.508 6.578 6.578 6.798 6.798 6.798 6.798 6.798 6.798 6.798 6.723 6.65 6.65 6.508 6.44 6.44 6.373 6.373 6.373 6.373 6.44 6.44 6.44 6.508 6.508 6.578 6.578 6.578 6.578 6.578 6.44 6.44 6.373 6.373 6.243 6.118 6.118 6.057 5.998 5.998 5.94 5.94 5.94 5.94 5.998 5.998 6.118 6.307 6.307 6.508 6.508 6.798 6.952 6.952 7.197 7.283 7.283 7.461 7.461 7.553 7.647 7.647 7.744 7.843 7.843 7.843 7.744 7.744 7.744 7.647 7.553 7.553 7.461 7.461 7.283 7.114 7.114 7.032 6.874 6.874 6.874 6.874 6.798 6.798 6.798 6.798 6.798 6.874 6.874 6.874 6.874 6.952 6.952 6.952 7.032 7.114 7.114 7.114 7.114 7.032 7.032 7.032 6.952 6.952 6.798 6.723 6.723 6.307 6.307 5.462 4.894 4.894 4.433 4.433 4.134 3.922 3.922 3.753 3.62 3.62 3.578 3.578 3.578 3.557 3.557 3.557 3.557 3.557 3.557 0 0 0 0 0 0 0 0 0 0 0 0 0 0 0 0 0 0 0 0 0 0 0 0 0 0 0 0 0 0 0 0 0 0 0 0.284 0.284 0.285 0.285 0.285 0.286 0.286 0.286 0.286 0.286 0.287 0.287 0.288 0.289 0.289 0.29 0.29 0.29 0.29 0.29 0 0 0 0 0.295 0.295 0.297 0.297 0.3 0.3 0.3 0.301 0.301 0.301 0.302 0.302 0.303 0.303 0.303 0.303 0.302 0.3 0.3 0.3 0 0 0 0 0 0.29 0.29 0.29 0.29 0.29 0.29 0.29 0.29 0 0 0 0 0 0 0 0 0 0 0 0 0 0 0 0.285 0.285 0.285 0.284 0.284 0.284 0.283 0.283 0.283 0.283 0.283 0.283 0.283 0.283 0.283 0.283 0.283 0.283 0.283 0.283 0.283 0.283 0.283 0.283 0.283 0.283 0.284 0.284 0.284 0.284 0.284 0.284 0.284 0.284 0.284 0.284 0.284 0.285 0.285 0.285 0.285 0.285 0.285 0.285 0.286 0.286 0.286 0.286 0.287 0.287 0.287 0.287 0.287 0.287 0.287 0.288 0.288 0.288 0.288 0.288 0.288 0.288 0.288 0.289 0.289 0.289 0.289 0.289 0.289 0.29 0.29 0.29 0.29 0.29 0.29 0.29 0.291 0.291 0.291 0.291 0.291 0.291 0.291 0.291 0.291 0.291 0.291 0.292 0.292 0.292 0.292 0.292 0.292 0.292 0.292 0.292 0.293 0.293 0.293 0.293 0.293 0.293 0.293 0.293 0.293 0.293 0.293 0.293 0.293 0.293 0.293 0.293 0.293 0.293 0.293 0.293 0.293 0.293 0.293 0.294 0.294 0.294 0.294 0.294 0.294 0.294 0.294 0.294 0.295 0.295 0.295 0.295 0.295 0.296 0.296 0.296 0.296 0.296 0.296 0.296 0.296 0.296 0.296 0.296 0.296 0.295 0.295 0.295 0.295 0.295 0.294 0.294 0.299 0.299 0 0 0.315 0.315 0.315 0.315 0.316 0.315 0.315 0.316 0.315 0.315 0.315 0.314 0.314 0.313 0.311 0.311 0.31 0.309 0.309 0.308 0.308 0.306 0.305 0.305 0.305 0.304 0.304 0.304 0.304 0.304 0.304 0 0 0 0 0 0 0 0 0 0 0 0 0 0 0 0 0 0 0 0 0 0 0 0 0 0 0 0 0 0 0 0 0 0 0 0 0 0 0 0 0 0 0 0 0
6.057 6.057 6.057 6.057 6.057 6.057 6.057 6.118 6.243 6.243 6.373 6.508 6.508 6.578 6.578 6.798 6.798 6.798 6.798 6.798 6.798 6.798 6.723 6.65 6.65 6.508 6.44 6.44 6.373 6.373 6.373 6.373 6.44 6.44 6.44 6.508 6.508 6.578 6.578 6.578 6.578 6.578 6.44 6.44 6.373 6.373 6.243 6.118 6.118 5.998 5.94 5.94 5.94 5.94 5.94 5.94 5.94 5.94 6.118 6.307 6.307 6.44 6.44 6.723 6.952 6.952 7.197 7.283 7.283 7.461 7.461 7.553 7.647 7.647 7.744 7.843 7.843 7.843 7.843 7.744 7.744 7.647 7.553 7.553 7.461 7.461 7.283 7.114 7.114 7.032 6.874 6.874 6.874 6.874 6.798 6.798 6.798 6.798 6.798 6.874 6.874 6.874 6.874 6.952 7.032 7.032 7.032 7.114 7.114 7.114 7.114 7.114 7.114 7.032 6.952 6.952 6.874 6.723 6.723 6.307 6.307 5.462 4.894 4.894 4.466 4.466 4.466 3.947 3.947 3.753 3.642 3.642 3.578 3.578 3.578 3.557 3.557 3.557 3.578 0 0 0 0 0 0 0 0 0 0 0 0 0 0 0 0 0 0 0 0 0 0 0.281 0.281 0.281 0 0 0 0 0 0 0 0 0 0 0 0 0.284 0.284 0.285 0.285 0.285 0.286 0.286 0.286 0.286 0.286 0.287 0.287 0.288 0.289 0.289 0 0.289 0.289 0.289 0.289 0.29 0 0 0 0.295 0.295 0 0 0.3 0.3 0.3 0.301 0.301 0.301 0.302 0.302 0.302 0.303 0.303 0.303 0.302 0.3 0.3 0.3 0 0 0 0 0 0.29 0.29 0.287 0.287 0.287 0.287 0.29 0.29 0 0 0 0 0 0 0 0 0 0 0 0 0 0 0 0.285 0.285 0.285 0.284 0.284 0.284 0.283 0.283 0.283 0.283 0.283 0.283 0.283 0.283 0.283 0.283 0.283 0.283 0.283 0.283 0.283 0.283 0.283 0.283 0.283 0.283 0.284 0.284 0.284 0.284 0.284 0.284 0.284 0.284 0.284 0.284 0.284 0.285 0.285 0.285 0.285 0.285 0.285 0.285 0.285 0.286 0.286 0.286 0.286 0.286 0.287 0.287 0.287 0.287 0.287 0.287 0.287 0.287 0.288 0.288 0.288 0.288 0.288 0.288 0.288 0.288 0.289 0.289 0.289 0.289 0.289 0.29 0.29 0.29 0.29 0.29 0.29 0.29 0.29 0.291 0.291 0.291 0.291 0.291 0.291 0.291 0.291 0.291 0.291 0.291 0.291 0.291 0.291 0.292 0.292 0.292 0.292 0.292 0.292 0.293 0.293 0.293 0.293 0.293 0.293 0.293 0.293 0.293 0.293 0.293 0.293 0.293 0.293 0.293 0.293 0.293 0.293 0.293 0.293 0.294 0.294 0.294 0.294 0.294 0.294 0.294 0.294 0.294 0.295 0.295 0.295 0.295 0.295 0.296 0.296 0.296 0.296 0.296 0.296 0.296 0.296 0.296 0.296 0.296 0.296 0.295 0.295 0.295 0.295 0.295 0.294 0.294 0 0 0 0 0 0 0.315 0.315 0.316 0.315 0.315 0.315 0.315 0.315 0.315 0.314 0.314 0.313 0.311 0.311 0.31 0.31 0.309 0.307 0.307 0.306 0.305 0.305 0.305 0.304 0.304 0.304 0.304 0.303 0.303 0 0 0 0 0 0 0 0 0 0 0 0 0 0 0 0 0 0 0 0 0 0 0 0 0 0 0 0 0 0 0 0 0 0 0 0 0 0 0 0 0 0 0 0 0
6.057 6.057 6.057 6.057 6.057 6.118 6.118 6.18 6.307 6.307 6.44 6.508 6.508 6.723 6.723 6.798 6.874 6.874 6.874 6.874 6.874 6.874 6.723 6.65 6.65 6.508 6.508 6.508 6.373 6.373 6.373 6.44 6.44 6.44 6.508 6.578 6.578 6.578 6.578 6.578 6.65 6.578 6.44 6.44 6.373 6.373 6.243 6.118 6.118 5.998 5.94 5.94 5.94 5.94 5.94 5.94 5.94 5.94 6.118 6.307 6.307 6.44 6.44 6.723 6.952 6.952 7.197 7.283 7.283 7.461 7.461 7.553 7.647 7.647 7.744 7.843 7.843 7.843 7.843 7.744 7.744 7.647 7.553 7.553 7.461 7.461 7.283 7.114 7.114 6.952 6.874 6.874 6.874 6.874 6.798 6.798 6.798 6.798 6.798 6.798 6.798 6.874 6.874 6.952 6.952 6.952 7.032 7.114 7.114 7.114 7.114 7.114 7.114 7.032 6.952 6.952 6.874 6.723 6.723 6.44 6.44 5.613 4.974 4.974 4.498 4.498 4.498 3.947 3.947 3.776 3.642 3.642 3.578 3.578 3.578 3.557 3.557 3.557 3.578 0 0 0 0 0 0 0 0 0 0 0 0 0 0 0 0 0 0 0 0.281 0.281 0.281 0.281 0.281 0.281 0.281 0.281 0.281 0 0.281 0.281 0.281 0.281 0.282 0.282 0.282 0.282 0.282 0.283 0.284 0.284 0.284 0.285 0.285 0.286 0.285 0.285 0.286 0.286 0 0 0 0 0.289 0.289 0.289 0.289 0.29 0 0 0 0 0 0 0 0.3 0.3 0.3 0.3 0.3 0.301 0.301 0.301 0.302 0 0.303 0.303 0.303 0.3 0.3 0.3 0 0 0 0 0 0 0 0.287 0.287 0.287 0.287 0 0 0 0 0 0 0 0 0 0 0 0 0 0 0 0.284 0.284 0.284 0.284 0.284 0.283 0.283 0.283 0.283 0.283 0.283 0.283 0.283 0.283 0.283 0.283 0.283 0.283 0.283 0.283 0.283 0.283 0.283 0.283 0.283 0.283 0.283 0.283 0.283 0.283 0.283 0.283 0.283 0.284 0.284 0.284 0.284 0.284 0.284 0.284 0.284 0.285 0.285 0.285 0.285 0.285 0.285 0.286 0.286 0.286 0.286 0.286 0.287 0.287 0.287 0.287 0.287 0.287 0.287 0.287 0.288 0.288 0.288 0.288 0.288 0.288 0.288 0.288 0.289 0.289 0.289 0.289 0.289 0.29 0.29 0.29 0.29 0.29 0.29 0.29 0.29 0.29 0.29 0.29 0.29 0.29 0.291 0.291 0.291 0.291 0.291 0.291 0.291 0.291 0.291 0.291 0.291 0.291 0.292 0.292 0.292 0.292 0.292 0.292 0.292 0.293 0.293 0.293 0.293 0.293 0.293 0.293 0.293 0.293 0.293 0.293 0.293 0.293 0.293 0.293 0.293 0.293 0.293 0.293 0.293 0.294 0.294 0.294 0.294 0.294 0.294 0.294 0.295 0.295 0.295 0.295 0.295 0.296 0.296 0.296 0.296 0.296 0.296 0.296 0.296 0.295 0.295 0.295 0.295 0.295 0.294 0.294 0.294 0.294 0 0 0 0 0 0 0 0.316 0.316 0.315 0.315 0.315 0.315 0.315 0.314 0.314 0.314 0.312 0.311 0.311 0.309 0.309 0.308 0.307 0.307 0.305 0.304 0.304 0.304 0.304 0.304 0.304 0.304 0.303 0.303 0 0 0 0 0 0 0 0 0 0 0 0 0 0 0 0 0 0 0 0 0 0 0 0 0 0 0 0 0 0 0 0 0 0 0 0 0 0 0 0 0 0 0 0 0
6.118 6.057 6.057 6.057 6.057 6.118 6.118 6.18 6.307 6.307 6.44 6.578 6.578 6.723 6.723 6.874 6.874 6.874 6.874 6.874 6.874 6.874 6.723 6.65 6.65 6.508 6.508 6.508 6.373 6.373 6.373 6.44 6.508 6.508 6.508 6.578 6.578 6.65 6.65 6.65 6.65 6.578 6.44 6.44 6.373 6.373 6.243 6.118 6.118 5.998 5.998 5.998 5.94 5.94 5.94 5.94 5.998 5.998 6.118 6.307 6.307 6.508 6.508 6.798 7.032 7.032 7.197 7.283 7.283 7.461 7.461 7.553 7.647 7.647 7.744 7.843 7.843 7.843 7.843 7.744 7.744 7.744 7.553 7.553 7.461 7.461 7.283 7.114 7.114 6.952 6.874 6.874 6.874 6.874 6.798 6.798 6.798 6.798 6.798 6.798 6.798 6.874 6.874 6.952 6.952 6.952 7.114 7.114 7.114 7.114 7.114 7.114 7.114 7.114 7.032 7.032 6.952 6.798 6.798 6.578 6.578 5.772 4.974 4.974 4.498 4.498 4.498 3.947 3.947 3.776 3.663 3.663 3.599 3.599 3.578 3.557 3.557 3.557 3.578 3.578 3.578 0 0 0 0 0 0 0 0 0 0 0 0 0 0 0 0 0 0.281 0.281 0.281 0.281 0.281 0.281 0.281 0.281 0.281 0 0.281 0.281 0.281 0.281 0.282 0.282 0.282 0.282 0.282 0.283 0.284 0.284 0.284 0.284 0.284 0.284 0.284 0.285 0.286 0.286 0.286 0 0 0 0.287 0.287 0.287 0.287 0.29 0 0 0 0 0 0 0 0 0 0.3 0.3 0.3 0.301 0.301 0.301 0.302 0 0.303 0.303 0.303 0 0 0 0 0 0 0 0 0 0 0.287 0.287 0.287 0.287 0 0 0 0 0 0 0 0 0 0 0 0 0 0 0 0.283 0.283 0.283 0.283 0.283 0.283 0.283 0.283 0.283 0.283 0.283 0.282 0.282 0.282 0.282 0.282 0.282 0.282 0.282 0.282 0.282 0.282 0.283 0.283 0.283 0.283 0.283 0.283 0.283 0.283 0.283 0.283 0.283 0.283 0.283 0.283 0.284 0.284 0.284 0.284 0.284 0.284 0.284 0.284 0.285 0.285 0.285 0.285 0.285 0.285 0.286 0.286 0.286 0.286 0.286 0.287 0.287 0.287 0.287 0.287 0.287 0.287 0.287 0.288 0.288 0.288 0.288 0.288 0.288 0.288 0.289 0.289 0.289 0.289 0.289 0.289 0.29 0.29 0.29 0.29 0.29 0.29 0.29 0.29 0.29 0.29 0.291 0.291 0.291 0.291 0.291 0.291 0.291 0.291 0.291 0.291 0.291 0.291 0.292 0.292 0.292 0.292 0.292 0.292 0.292 0.293 0.293 0.293 0.293 0.293 0.293 0.293 0.293 0.293 0.293 0.293 0.293 0.293 0.293 0.293 0.293 0.293 0.293 0.293 0.293 0.294 0.294 0.294 0.294 0.294 0.294 0.294 0.295 0.295 0.295 0.295 0.295 0.295 0.296 0.296 0.296 0.296 0.296 0.296 0.295 0.295 0.295 0.295 0.295 0.295 0.294 0.294 0.294 0.294 0 0 0 0 0 0 0 0.315 0.315 0.315 0.315 0.315 0.315 0.315 0.314 0.314 0.314 0.312 0.311 0.311 0.309 0.309 0.308 0.307 0.307 0.305 0.304 0.304 0.304 0.304 0.304 0.303 0.303 0.303 0.303 0 0 0 0 0 0 0 0 0 0 0 0 0 0 0 0 0 0 0 0 0 0 0 0 0 0 0 0 0 0 0 0 0 0 0 0 0 0 0 0 0 0 0 0 0
6.118 6.057 6.057 6.057 6.057 6.118 6.118 6.18 6.307 6.307 6.44 6.578 6.578 6.723 6.723 6.874 6.874 6.874 6.874 6.874 6.798 6.798 6.723 6.65 6.65 6.508 6.508 6.508 6.373 6.373 6.373 6.44 6.508 6.508 6.508 6.578 6.578 6.65 6.65 6.65 6.65 6.578 6.44 6.44 6.373 6.373 6.243 6.118 6.118 5.998 5.998 5.998 5.94 5.94 5.94 5.94 5.998 5.998 6.118 6.307 6.307 6.508 6.508 6.798 7.032 7.032 7.197 7.283 7.283 7.461 7.461 7.553 7.647 7.647 7.744 7.744 7.744 7.843 7.843 7.744 7.744 7.744 7.553 7.553 7.461 7.461 7.283 7.114 7.114 6.952 6.874 6.874 6.798 6.798 6.798 6.723 6.723 6.723 6.798 6.798 6.798 6.874 6.874 6.952 6.952 6.952 7.114 7.114 7.114 7.114 7.114 7.114 7.114 7.114 7.032 7.032 6.952 6.798 6.798 6.578 6.578 5.772 5.015 5.015 4.532 4.532 4.532 3.999 3.999 3.848 3.708 3.708 3.62 3.62 3.578 3.578 3.578 3.578 3.578 3.578 3.578 0 0 0 0 0 0 0 0 0 0 0 0 0.281 0.281 0.281 0.281 0.281 0.281 0.281 0.281 0.281 0.281 0.281 0.281 0.281 0.281 0 0.281 0.281 0.281 0.281 0.282 0.282 0.282 0.282 0.282 0.282 0.283 0.283 0.283 0.284 0.284 0.284 0.284 0 0 0.286 0.286 0 0 0 0.287 0.287 0.287 0.287 0 0 0 0 0 0 0 0 0 0 0 0 0 0 0 0 0 0 0 0 0 0 0 0 0 0 0 0 0 0 0 0 0 0 0 0 0 0 0 0 0 0 0 0 0 0 0 0 0 0 0.283 0.283 0.283 0.283 0.283 0.283 0.283 0.283 0.283 0.283 0.283 0.282 0.282 0.282 0.282 0.282 0.282 0.282 0.282 0.282 0.282 0.282 0.283 0.283 0.283 0.283 0.283 0.283 0.283 0.283 0.283 0.283 0.283 0.283 0.283 0.283 0.284 0.284 0.284 0.284 0.284 0.284 0.284 0.284 0.285 0.285 0.285 0.285 0.285 0.285 0.286 0.286 0.286 0.286 0.286 0.287 0.287 0.287 0.287 0.287 0.287 0.287 0.287 0.287 0.287 0.287 0.288 0.288 0.288 0.288 0.288 0.288 0.288 0.289 0.289 0.289 0.289 0.289 0.29 0.29 0.29 0.29 0.29 0.29 0.29 0.29 0.29 0.29 0.29 0.29 0.29 0.29 0.29 0.29 0.291 0.291 0.291 0.291 0.291 0.291 0.291 0.291 0.292 0.292 0.292 0.292 0.292 0.292 0.292 0.292 0.292 0.292 0.292 0.292 0.292 0.292 0.292 0.292 0.292 0.292 0.292 0.292 0.293 0.293 0.293 0.293 0.293 0.293 0.293 0.293 0.294 0.294 0.294 0.295 0.295 0.295 0.295 0.295 0.296 0.296 0.296 0.296 0.296 0.296 0.295 0.295 0.295 0.295 0.295 0.295 0.294 0.294 0.294 0.294 0 0 0 0 0 0 0 0.315 0.315 0.315 0.315 0.315 0.315 0.315 0.314 0.314 0.314 0.312 0.31 0.31 0.309 0.309 0.308 0.306 0.306 0.305 0.304 0.304 0.304 0.304 0.303 0.303 0.303 0.302 0.302 0 0 0 0 0 0 0 0 0 0 0 0 0 0 0 0 0 0 0 0 0 0 0 0 0 0 0 0 0 0 0 0 0 0 0 0 0 0 0 0 0 0 0 0 0
6.118 6.057 6.057 6.057 6.057 6.118 6.118 6.243 6.373 6.373 6.508 6.65 6.65 6.723 6.723 6.874 6.874 6.874 6.798 6.798 6.723 6.723 6.65 6.578 6.578 6.508 6.44 6.44 6.44 6.44 6.44 6.508 6.508 6.508 6.578 6.65 6.65 6.65 6.65 6.723 6.723 6.65 6.508 6.508 6.373 6.373 6.243 6.118 6.118 6.057 5.998 5.998 5.998 5.998 5.998 5.998 5.998 5.998 6.18 6.373 6.373 6.578 6.578 6.798 7.032 7.032 7.197 7.283 7.283 7.461 7.461 7.553 7.647 7.647 7.744 7.744 7.744 7.744 7.744 7.744 7.744 7.647 7.553 7.553 7.371 7.371 7.283 7.114 7.114 6.952 6.874 6.874 6.798 6.798 6.798 6.723 6.723 6.723 6.723 6.798 6.798 6.874 6.874 6.952 7.032 7.032 7.114 7.114 7.114 7.197 7.197 7.197 7.197 7.197 7.114 7.114 7.032 6.952 6.952 6.65 6.65 5.94 5.229 5.229 4.706 4.706 4.706 3.999 3.999 3.848 3.708 3.708 3.62 3.62 3.578 3.578 3.578 3.578 3.578 3.578 3.578 0 0 0 0 0 0 0 0 0 0 0 0 0.281 0.281 0.28 0.28 0.28 0.28 0.28 0.28 0.281 0.281 0.28 0.28 0.28 0.28 0.28 0.28 0.28 0.28 0.28 0.28 0 0.281 0.281 0.281 0.282 0.282 0.282 0.283 0.283 0.283 0.283 0.283 0.283 0.284 0.284 0.285 0.285 0.285 0 0.285 0.285 0.287 0.287 0 0 0 0 0 0 0 0 0 0 0 0 0 0 0 0 0 0 0 0 0 0 0 0 0 0 0 0 0 0 0 0 0 0 0 0 0 0 0 0 0 0 0 0 0 0 0 0 0 0 0.282 0.282 0.282 0.282 0.282 0.282 0.282 0.282 0.282 0.282 0.282 0.282 0.282 0.282 0.282 0.282 0.282 0.282 0.282 0.282 0.282 0.282 0.282 0.282 0.282 0.282 0.282 0.282 0.283 0.283 0.283 0.283 0.283 0.283 0.283 0.283 0.283 0.283 0.283 0.283 0.283 0.284 0.284 0.284 0.284 0.284 0.285 0.285 0.285 0.285 0.285 0.285 0.286 0.286 0.286 0.286 0.286 0.286 0.287 0.287 0.287 0.287 0.287 0.287 0.287 0.287 0.288 0.288 0.288 0.288 0.288 0.288 0.288 0.289 0.289 0.289 0.289 0.289 0.29 0.29 0.29 0.29 0.29 0.29 0.29 0.29 0.29 0.29 0.29 0.29 0.29 0.29 0.29 0.29 0.291 0.291 0.291 0.291 0.291 0.291 0.291 0.291 0.292 0.292 0.292 0.292 0.292 0.292 0.292 0.292 0.292 0.292 0.292 0.292 0.292 0.292 0.292 0.292 0.292 0.292 0.292 0.292 0.292 0.292 0.292 0.292 0.292 0.293 0.293 0.293 0.293 0.293 0.294 0.295 0.295 0.295 0.295 0.295 0.295 0.295 0.296 0.296 0.296 0.296 0.295 0.295 0.295 0.295 0.295 0.295 0.294 0.294 0.294 0.294 0.294 0.294 0 0 0 0 0 0.313 0.313 0.313 0.315 0.315 0.315 0.315 0.314 0.314 0.314 0.312 0.31 0.31 0.308 0.308 0.307 0.306 0.306 0.305 0.304 0.304 0.304 0.304 0.303 0.303 0.303 0.302 0.302 0 0 0 0 0 0 0 0 0 0 0 0 0 0 0 0 0 0 0 0 0 0 0 0 0 0 0 0 0 0 0 0 0 0 0 0 0 0 0 0 0 0 0 0 0
6.118 6.057 6.057 6.057 6.057 6.118 6.118 6.243 6.373 6.373 6.578 6.65 6.65 6.798 6.798 6.874 6.874 6.874 6.798 6.798 6.723 6.723 6.65 6.578 6.578 6.508 6.44 6.44 6.44 6.44 6.44 6.508 6.578 6.578 6.65 6.723 6.723 6.723 6.723 6.798 6.798 6.723 6.508 6.508 6.44 6.44 6.307 6.118 6.118 6.057 5.998 5.998 5.998 5.998 5.998 5.998 5.998 5.998 6.243 6.373 6.373 6.65 6.65 6.798 7.032 7.032 7.197 7.283 7.283 7.461 7.461 7.553 7.647 7.647 7.744 7.744 7.744 7.744 7.744 7.744 7.744 7.647 7.553 7.553 7.371 7.371 7.283 7.114 7.114 6.952 6.874 6.874 6.798 6.798 6.798 6.723 6.723 6.723 6.723 6.798 6.798 6.874 6.874 6.952 7.032 7.032 7.114 7.197 7.197 7.283 7.283 7.283 7.283 7.283 7.197 7.197 7.114 7.032 7.032 6.874 6.874 6.243 5.229 5.229 4.706 4.706 4.706 4.079 4.079 3.922 3.776 3.776 3.663 3.663 3.62 3.578 3.578 3.578 3.599 3.599 3.599 0 0 0 0 0 0 0 0 0 0 0 0.28 0.28 0.28 0.28 0.28 0.28 0.28 0.28 0.28 0.281 0.281 0.28 0.28 0.28 0.28 0.28 0.28 0.28 0.28 0.28 0.28 0 0.281 0.281 0.281 0.282 0.282 0.282 0.283 0.283 0.283 0.283 0.283 0.283 0.284 0.284 0.285 0.285 0.285 0 0.285 0.285 0 0 0 0 0 0 0 0 0 0 0 0 0 0 0 0 0 0 0 0 0 0 0 0 0 0 0 0 0 0 0 0 0 0 0 0 0 0 0 0 0 0 0 0 0 0 0 0 0 0 0 0 0.282 0.282 0.282 0.282 0.282 0.282 0.282 0.282 0.282 0.282 0.282 0.282 0.282 0.282 0.282 0.282 0.282 0.282 0.282 0.282 0.282 0.282 0.282 0.282 0.282 0.282 0.282 0.282 0.283 0.283 0.283 0.283 0.283 0.283 0.283 0.283 0.283 0.283 0.283 0.283 0.283 0.284 0.284 0.284 0.284 0.284 0.284 0.284 0.284 0.285 0.285 0.285 0.285 0.285 0.286 0.286 0.286 0.286 0.286 0.286 0.286 0.286 0.287 0.287 0.287 0.287 0.287 0.287 0.287 0.287 0.288 0.288 0.288 0.288 0.289 0.289 0.289 0.289 0.289 0.289 0.289 0.29 0.29 0.29 0.29 0.29 0.29 0.29 0.29 0.29 0.29 0.29 0.29 0.29 0.29 0.29 0.29 0.291 0.291 0.291 0.291 0.291 0.291 0.292 0.292 0.292 0.292 0.292 0.292 0.292 0.292 0.292 0.292 0.292 0.292 0.292 0.292 0.292 0.292 0.292 0.292 0.292 0.292 0.292 0.292 0.292 0.292 0.293 0.293 0.293 0.293 0.293 0.294 0.295 0.295 0.295 0.295 0.295 0.295 0.295 0.296 0.296 0.296 0.296 0.295 0.295 0.295 0.295 0.295 0.295 0.294 0.294 0.294 0.294 0.294 0.294 0 0 0 0 0 0.313 0.313 0.313 0.313 0.313 0.313 0.313 0.313 0.314 0.314 0.312 0.31 0.31 0.308 0.308 0.307 0.306 0.306 0.304 0.303 0.303 0.303 0.303 0.303 0.302 0.302 0.302 0.302 0 0 0 0 0 0 0 0 0 0 0 0 0 0 0 0 0 0 0 0 0 0 0 0 0 0 0 0 0 0 0 0 0 0 0 0 0 0 0 0 0 0 0 0 0
6.243 6.18 6.118 6.118 6.118 6.18 6.18 6.307 6.44 6.44 6.578 6.65 6.65 6.798 6.798 6.874 6.874 6.874 6.723 6.723 6.65 6.65 6.578 6.508 6.508 6.508 6.44 6.44 6.44 6.44 6.44 6.508 6.578 6.578 6.65 6.723 6.723 6.723 6.723 6.798 6.798 6.723 6.508 6.508 6.44 6.44 6.307 6.18 6.18 6.118 6.057 6.057 6.057 6.057 6.057 6.057 6.118 6.118 6.243 6.373 6.373 6.65 6.65 6.798 7.032 7.032 7.197 7.283 7.283 7.283 7.283 7.461 7.553 7.553 7.647 7.744 7.744 7.744 7.744 7.744 7.744 7.647 7.553 7.553 7.371 7.371 7.197 7.032 7.032 6.952 6.798 6.798 6.723 6.723 6.723 6.723 6.723 6.723 6.723 6.723 6.723 6.798 6.798 6.952 6.952 6.952 7.114 7.197 7.197 7.283 7.283 7.283 7.283 7.283 7.197 7.197 7.114 7.032 7.032 6.874 6.874 6.243 5.414 5.414 4.78 4.78 4.566 4.162 4.162 3.973 3.824 3.824 3.685 3.685 3.642 3.642 3.642 3.62 3.62 3.62 3.62 0 0 0 0 0 0 0 0 0 0.279 0.279 0.279 0.279 0.28 0.28 0.28 0.28 0.28 0.28 0.28 0.28 0.28 0.28 0.28 0.28 0.28 0.28 0.28 0.28 0.28 0.28 0.28 0.28 0.28 0.281 0.281 0.281 0.281 0.281 0.282 0.282 0.282 0.282 0.282 0.282 0.283 0.283 0.283 0.283 0.283 0 0 0 0 0 0 0 0 0 0 0 0 0 0 0 0 0 0 0 0 0 0 0 0 0 0 0 0 0 0 0 0 0 0 0 0 0 0 0 0 0 0 0 0 0 0 0 0 0 0 0 0 0.281 0.281 0.282 0.282 0.282 0.282 0.282 0.282 0.282 0.282 0.282 0.282 0.282 0.282 0.282 0.282 0.282 0.281 0.281 0.281 0.281 0.281 0.281 0.282 0.282 0.282 0.282 0.282 0.282 0.282 0.282 0.282 0.282 0.282 0.283 0.283 0.283 0.283 0.283 0.283 0.283 0.283 0.283 0.283 0.283 0.284 0.284 0.284 0.284 0.284 0.284 0.284 0.285 0.285 0.285 0.285 0.285 0.286 0.286 0.286 0.286 0.286 0.286 0.286 0.286 0.287 0.287 0.287 0.287 0.287 0.287 0.287 0.287 0.288 0.288 0.288 0.288 0.288 0.288 0.289 0.289 0.289 0.289 0.289 0.289 0.289 0.289 0.289 0.289 0.29 0.29 0.29 0.29 0.29 0.29 0.29 0.29 0.29 0.29 0.29 0.29 0.29 0.29 0.291 0.291 0.291 0.291 0.291 0.292 0.292 0.292 0.292 0.292 0.292 0.292 0.292 0.292 0.292 0.292 0.292 0.292 0.292 0.292 0.292 0.292 0.292 0.292 0.292 0.292 0.292 0.292 0.292 0.293 0.293 0.293 0.294 0.294 0.294 0.294 0.294 0.295 0.295 0.295 0.295 0.295 0.295 0.295 0.295 0.295 0.295 0.295 0.294 0.294 0.294 0.294 0.294 0.294 0.294 0.294 0 0 0 0 0 0 0 0 0.313 0.313 0.313 0.313 0.313 0 0 0.311 0.309 0.309 0.308 0.308 0.306 0.305 0.305 0.304 0.303 0.303 0.303 0.303 0.303 0.302 0.302 0.302 0.302 0 0 0 0 0 0 0 0 0 0 0 0 0 0 0 0 0 0 0 0 0 0 0 0 0 0 0 0 0 0 0 0 0 0 0 0 0 0 0 0 0 0 0 0 0
6.243 6.243 6.18 6.18 6.18 6.243 6.243 6.373 6.508 6.508 6.578 6.723 6.723 6.798 6.798 6.874 6.874 6.874 6.723 6.723 6.65 6.65 6.578 6.508 6.508 6.508 6.44 6.44 6.44 6.44 6.44 6.508 6.578 6.578 6.65 6.798 6.798 6.798 6.798 6.798 6.798 6.723 6.578 6.578 6.44 6.44 6.307 6.243 6.243 6.118 6.118 6.118 6.118 6.18 6.18 6.18 6.18 6.18 6.307 6.508 6.508 6.723 6.723 6.952 7.032 7.032 7.197 7.283 7.283 7.283 7.283 7.461 7.553 7.553 7.647 7.647 7.647 7.744 7.744 7.647 7.647 7.553 7.461 7.461 7.371 7.371 7.197 7.032 7.032 6.874 6.798 6.798 6.723 6.723 6.723 6.723 6.723 6.65 6.65 6.723 6.723 6.798 6.798 6.874 6.952 6.952 7.114 7.197 7.197 7.283 7.283 7.371 7.371 7.371 7.371 7.371 7.283 7.197 7.197 7.032 7.032 6.44 5.718 5.718 4.974 4.974 4.566 4.162 4.162 3.973 3.824 3.824 3.685 3.685 3.642 3.642 3.642 3.62 3.62 3.62 3.62 0 0 0 0 0 0 0 0 0 0.279 0.279 0.279 0.279 0.28 0.28 0.28 0.28 0.28 0.28 0.28 0.28 0.28 0.28 0.28 0.28 0.28 0.28 0.28 0.28 0.28 0.28 0.28 0.28 0.28 0.281 0.281 0.281 0.281 0.281 0.282 0.282 0.282 0.282 0.282 0.282 0.283 0.282 0.282 0.282 0.282 0 0 0 0 0 0 0 0 0 0 0 0 0.287 0.287 0 0 0 0 0 0 0 0 0 0 0 0 0 0 0 0 0 0 0 0 0 0 0 0 0 0 0 0 0 0 0 0 0 0 0 0 0 0 0.281 0.281 0.281 0.281 0.281 0.281 0.281 0.281 0.281 0.281 0.281 0.281 0.281 0.281 0.281 0.281 0.281 0.281 0.281 0.281 0.281 0.281 0.281 0.281 0.281 0.282 0.282 0.282 0.282 0.282 0.282 0.282 0.282 0.282 0.282 0.282 0.282 0.283 0.283 0.283 0.283 0.283 0.283 0.283 0.283 0.283 0.283 0.284 0.284 0.284 0.284 0.284 0.284 0.285 0.285 0.285 0.285 0.285 0.285 0.285 0.285 0.285 0.285 0.286 0.286 0.286 0.286 0.286 0.286 0.287 0.287 0.287 0.287 0.287 0.288 0.288 0.288 0.288 0.288 0.289 0.289 0.289 0.289 0.289 0.289 0.289 0.289 0.289 0.289 0.29 0.29 0.29 0.29 0.29 0.29 0.29 0.29 0.29 0.29 0.29 0.29 0.29 0.29 0.291 0.291 0.291 0.291 0.291 0.292 0.292 0.292 0.292 0.292 0.292 0.292 0.292 0.292 0.292 0.292 0.292 0.292 0.292 0.292 0.292 0.292 0.292 0.292 0.292 0.292 0.292 0.292 0.292 0.293 0.293 0.293 0.293 0.294 0.294 0.294 0.294 0.294 0.295 0.295 0.295 0.295 0.295 0.295 0.295 0.295 0.295 0.294 0.294 0.294 0.294 0.294 0.294 0.294 0.294 0.294 0 0 0 0 0 0 0 0 0.313 0.313 0.313 0.313 0.313 0 0 0.308 0.308 0.309 0.309 0 0.306 0.305 0.305 0.304 0.303 0.303 0.303 0.303 0.303 0.302 0.302 0.302 0.302 0 0 0 0 0 0 0 0 0 0 0 0 0 0 0 0 0 0 0 0 0 0 0 0 0 0 0 0 0 0 0 0 0 0 0 0 0 0 0 0 0 0 0 0 0
6.243 6.243 6.18 6.18 6.18 6.243 6.243 6.373 6.508 6.508 6.578 6.723 6.723 6.798 6.798 6.798 6.798 6.798 6.723 6.723 6.65 6.65 6.508 6.508 6.508 6.508 6.44 6.44 6.44 6.44 6.44 6.508 6.578 6.578 6.65 6.798 6.798 6.798 6.798 6.798 6.798 6.723 6.578 6.578 6.44 6.44 6.307 6.243 6.243 6.118 6.118 6.118 6.118 6.18 6.18 6.18 6.18 6.18 6.307 6.508 6.508 6.723 6.723 6.952 7.032 7.032 7.197 7.283 7.283 7.283 7.283 7.461 7.553 7.553 7.647 7.647 7.647 7.744 7.744 7.647 7.647 7.553 7.461 7.461 7.371 7.371 7.197 7.032 7.032 6.874 6.798 6.798 6.723 6.723 6.65 6.65 6.65 6.65 6.65 6.723 6.723 6.798 6.798 6.874 6.952 6.952 7.114 7.197 7.197 7.283 7.283 7.461 7.461 7.461 7.371 7.371 7.371 7.197 7.197 7.114 7.114 6.65 5.718 5.718 4.974 4.974 4.566 4.566 0 4.052 3.897 3.897 3.776 3.776 3.685 3.663 3.663 3.663 3.663 0 0 0 0 0 0 0 0 0 0 0 0.279 0.279 0.279 0.279 0.279 0.279 0.279 0.279 0.279 0.28 0.28 0.28 0.28 0.28 0.28 0.28 0.279 0.279 0.279 0.279 0.279 0.279 0.279 0.28 0.28 0.28 0.28 0.28 0.28 0.28 0.281 0.281 0.281 0.281 0.281 0.281 0 0.282 0.282 0.282 0.282 0 0 0 0 0 0 0 0 0 0 0 0 0.287 0.287 0 0 0 0 0 0 0 0 0 0 0 0 0 0 0 0 0 0 0 0 0.279 0.279 0.279 0.279 0.279 0.279 0.279 0.279 0.279 0 0 0 0 0 0 0 0 0 0.281 0.281 0.281 0.281 0.281 0.281 0.281 0.281 0.281 0.281 0.281 0.281 0.281 0.281 0.281 0.281 0.281 0.281 0.281 0.281 0.281 0.281 0.281 0.281 0.281 0.282 0.282 0.282 0.282 0.282 0.282 0.282 0.282 0.282 0.282 0.282 0.282 0.283 0.283 0.283 0.283 0.283 0.283 0.283 0.283 0.283 0.283 0.284 0.284 0.284 0.284 0.284 0.284 0.285 0.285 0.285 0.285 0.285 0.285 0.285 0.285 0.285 0.285 0.285 0.285 0.286 0.286 0.286 0.286 0.286 0.286 0.287 0.287 0.287 0.287 0.287 0.288 0.288 0.288 0.288 0.288 0.288 0.289 0.289 0.289 0.289 0.289 0.289 0.289 0.289 0.289 0.289 0.289 0.289 0.289 0.289 0.289 0.289 0.29 0.29 0.29 0.29 0.29 0.29 0.29 0.29 0.291 0.291 0.291 0.291 0.291 0.291 0.291 0.292 0.292 0.292 0.292 0.292 0.292 0.291 0.291 0.291 0.291 0.291 0.291 0.291 0.291 0.292 0.292 0.292 0.292 0.292 0.292 0.293 0.293 0.293 0.294 0.294 0.294 0.294 0.294 0.295 0.295 0.295 0.295 0.295 0.295 0.295 0.295 0.295 0.294 0.294 0.294 0.294 0.294 0.294 0.294 0.294 0.294 0 0 0 0 0 0 0 0 0 0 0 0 0 0 0 0.308 0.307 0.307 0.307 0 0.305 0.304 0.304 0.303 0.303 0.303 0.303 0.303 0.302 0.302 0.302 0.302 0.302 0 0 0 0 0 0 0 0 0 0 0 0 0 0 0 0 0 0 0 0 0 0 0 0 0 0 0 0 0 0 0 0 0 0 0 0 0 0 0 0 0 0 0 0 0
6.307 6.307 6.307 6.307 6.307 6.307 6.307 6.44 6.578 6.578 6.65 6.723 6.723 6.798 6.798 6.798 6.798 6.723 6.65 6.65 6.578 6.578 6.508 6.508 6.508 6.508 6.44 6.44 6.44 6.508 6.508 6.578 6.65 6.65 6.798 6.874 6.874 6.874 6.874 6.798 6.798 6.798 6.65 6.65 6.508 6.508 6.44 6.307 6.307 6.243 6.18 6.18 6.18 6.18 6.18 6.18 6.307 6.307 6.373 6.578 6.578 6.723 6.723 6.874 7.032 7.032 7.114 7.197 7.197 7.283 7.283 7.371 7.461 7.461 7.553 7.647 7.647 7.647 7.647 7.553 7.553 7.553 7.371 7.371 7.283 7.283 7.114 6.952 6.952 6.874 6.723 6.723 6.65 6.65 6.65 6.578 6.578 6.578 6.65 6.65 6.65 6.723 6.723 6.874 6.952 6.952 7.032 7.197 7.197 7.283 7.283 7.371 7.461 7.461 7.371 7.371 7.371 7.197 7.197 7.114 7.114 6.65 5.94 5.94 5.185 5.185 4.67 4.67 0 4.19 3.999 3.999 3.872 3.872 3.685 3.663 3.663 3.663 3.663 0 0 0 0 0 0 0 0 0 0 0 0.279 0.279 0.279 0.279 0.279 0.279 0.279 0.279 0.279 0.279 0.279 0.279 0.279 0.279 0.279 0.279 0.279 0.279 0.279 0.279 0.279 0.279 0.279 0.279 0.279 0.279 0.279 0.279 0.28 0.28 0.28 0.28 0.28 0.28 0.28 0.28 0.281 0.281 0.281 0.282 0.282 0 0 0 0 0.281 0.281 0.281 0.281 0 0 0.283 0.283 0.283 0.285 0 0 0 0 0 0 0 0 0 0 0 0 0 0 0 0 0 0 0 0 0.279 0.279 0.279 0.279 0.279 0.279 0.279 0.279 0.279 0.279 0.279 0 0 0 0 0 0.28 0.28 0.28 0.28 0.281 0.281 0.281 0.281 0.281 0.281 0.281 0.281 0.281 0.281 0.281 0.281 0.281 0.281 0.281 0.281 0.281 0.281 0.281 0.281 0.281 0.281 0.281 0.281 0.281 0.281 0.281 0.282 0.282 0.282 0.282 0.282 0.282 0.282 0.282 0.282 0.282 0.282 0.282 0.283 0.283 0.283 0.283 0.283 0.283 0.283 0.283 0.284 0.284 0.284 0.284 0.284 0.284 0.285 0.285 0.285 0.285 0.285 0.285 0.285 0.285 0.285 0.285 0.286 0.286 0.286 0.286 0.286 0.286 0.287 0.287 0.287 0.287 0.287 0.288 0.288 0.288 0.288 0.288 0.288 0.289 0.289 0.289 0.289 0.289 0.289 0.289 0.289 0.289 0.289 0.289 0.289 0.289 0.289 0.289 0.289 0.29 0.29 0.29 0.29 0.29 0.29 0.29 0.29 0.29 0.29 0.291 0.291 0.291 0.291 0.291 0.291 0.291 0.291 0.291 0.291 0.291 0.291 0.291 0.291 0.291 0.291 0.291 0.291 0.291 0.291 0.291 0.291 0.292 0.292 0.292 0.292 0.292 0.293 0.293 0.293 0.294 0.294 0.294 0.294 0.294 0.295 0.295 0.295 0.295 0.295 0.294 0.294 0.294 0.294 0.294 0.294 0.294 0.294 0.294 0.294 0.294 0 0 0 0 0 0 0 0 0 0 0 0 0 0 0 0.308 0.307 0.307 0.307 0 0.305 0.304 0.304 0.303 0.303 0.303 0.303 0.303 0.302 0.302 0.302 0.302 0.302 0 0 0 0 0 0 0 0 0 0 0 0 0 0 0 0 0 0 0 0 0 0 0 0 0 0 0 0 0 0 0 0 0 0 0 0 0 0 0 0 0 0 0 0 0
